ply
format ascii 1.0
comment PCL generated
element vertex 1151
property float x
property float y
property float z
property uchar red
property uchar green
property uchar blue
element camera 0
property float view_px
property float view_py
property float view_pz
property float x_axisx
property float x_axisy
property float x_axisz
property float y_axisx
property float y_axisy
property float y_axisz
property float z_axisx
property float z_axisy
property float z_axisz
property float focal
property float scalex
property float scaley
property float centerx
property float centery
property int viewportx
property int viewporty
property float k1
property float k2
end_header
13.173868 9.876339 -28.851536 226 45 81
13.173868 9.876339 -29.218906 226 45 81
10.969639 13.917426 -28.484163 226 45 81
10.969639 13.917426 -28.116793 226 45 81
10.602267 13.917426 -27.74942 226 45 81
10.602267 13.917426 -27.38205 226 45 81
10.969639 13.917426 -27.74942 226 45 81
10.969639 13.917426 -27.38205 226 45 81
10.602267 14.284798 -28.484163 226 45 81
13.54124 8.7742233 -30.688393 226 45 81
13.54124 8.4068518 -30.321022 226 45 81
13.54124 8.4068518 -30.688393 226 45 81
13.908611 8.7742233 -31.055765 226 45 81
13.908611 8.4068518 -31.055765 226 45 81
13.908611 8.4068518 -31.423136 226 45 81
13.54124 8.4068518 -31.055765 226 45 81
13.908611 8.0394802 -30.688393 226 45 81
13.54124 8.0394802 -30.321022 226 45 81
13.54124 8.0394802 -30.688393 226 45 81
13.54124 7.6721091 -30.688393 226 45 81
10.602267 14.284798 -28.116793 226 45 81
10.969639 14.284798 -28.484163 226 45 81
10.969639 14.284798 -28.116793 226 45 81
10.602267 14.284798 -27.74942 226 45 81
10.602267 14.284798 -27.38205 226 45 81
10.969639 14.284798 -27.74942 226 45 81
10.969639 14.284798 -27.38205 226 45 81
14.643354 8.7742233 -31.423136 226 45 81
14.643354 8.4068518 -31.423136 226 45 81
14.275983 8.7742233 -31.055765 226 45 81
14.275983 8.7742233 -31.423136 226 45 81
14.275983 8.4068518 -31.055765 226 45 81
14.275983 8.4068518 -31.423136 226 45 81
14.275983 8.0394802 -31.423136 226 45 81
13.908611 8.7742233 -30.321022 226 45 81
13.908611 8.7742233 -30.688393 226 45 81
13.908611 8.4068518 -30.688393 226 45 81
13.54124 8.7742233 -30.321022 226 45 81
11.33701 13.550055 -28.484163 226 45 81
11.33701 13.550055 -28.116793 226 45 81
11.33701 13.917426 -28.484163 226 45 81
11.33701 13.917426 -28.116793 226 45 81
11.704382 13.550055 -28.484163 226 45 81
11.704382 13.550055 -28.116793 226 45 81
11.704382 13.917426 -28.484163 226 45 81
14.275983 9.1415958 -31.055765 226 45 81
14.275983 9.1415958 -31.423136 226 45 81
13.908611 9.876339 -30.321022 226 45 81
13.908611 9.5089674 -30.321022 226 45 81
13.908611 9.1415958 -30.321022 226 45 81
13.908611 9.1415958 -30.688393 226 45 81
13.54124 9.1415958 -30.321022 226 45 81
13.54124 8.7742233 -29.95365 226 45 81
13.54124 8.4068518 -29.95365 226 45 81
14.275983 8.7742233 -30.688393 226 45 81
14.643354 8.7742233 -31.055765 226 45 81
11.704382 13.917426 -28.116793 226 45 81
11.33701 13.550055 -27.74942 226 45 81
11.33701 13.550055 -27.38205 226 45 81
11.33701 13.917426 -27.74942 226 45 81
11.33701 13.917426 -27.38205 226 45 81
11.704382 13.550055 -27.74942 226 45 81
11.704382 13.550055 -27.38205 226 45 81
14.643354 9.876339 -31.055765 226 45 81
14.643354 9.5089674 -30.688393 226 45 81
14.275983 9.5089674 -30.321022 226 45 81
14.275983 9.5089674 -30.688393 226 45 81
14.275983 9.1415958 -30.321022 226 45 81
14.275983 9.1415958 -30.688393 226 45 81
14.643354 9.5089674 -31.055765 226 45 81
14.643354 9.5089674 -31.423136 226 45 81
14.643354 9.1415958 -31.055765 226 45 81
14.643354 9.1415958 -31.423136 226 45 81
14.275983 9.5089674 -31.055765 226 45 81
11.704382 13.917426 -27.74942 226 45 81
11.704382 13.917426 -27.38205 226 45 81
10.602267 13.550055 -26.647306 226 45 81
10.602267 13.917426 -27.014677 226 45 81
10.602267 13.917426 -26.647306 226 45 81
10.969639 13.550055 -26.647306 226 45 81
10.969639 13.917426 -27.014677 226 45 81
13.54124 9.5089674 -29.586279 226 45 81
13.54124 9.5089674 -29.95365 226 45 81
13.54124 9.1415958 -29.586279 226 45 81
13.54124 9.1415958 -29.95365 226 45 81
14.643354 10.243711 -30.321022 226 45 81
14.643354 10.243711 -30.688393 226 45 81
14.643354 9.876339 -30.321022 226 45 81
14.643354 9.876339 -30.688393 226 45 81
14.275983 10.243711 -30.321022 226 45 81
14.275983 9.876339 -30.321022 226 45 81
14.275983 9.876339 -30.688393 226 45 81
10.969639 13.917426 -26.647306 226 45 81
10.602267 13.550055 -26.279934 226 45 81
10.602267 13.550055 -25.912563 226 45 81
10.602267 13.917426 -26.279934 226 45 81
10.602267 13.917426 -25.912563 226 45 81
10.969639 13.550055 -26.279934 226 45 81
10.969639 13.550055 -25.912563 226 45 81
13.54124 9.876339 -29.218906 226 45 81
13.908611 10.243711 -29.586279 226 45 81
13.908611 10.243711 -29.95365 226 45 81
13.908611 9.876339 -29.586279 226 45 81
13.908611 9.876339 -29.95365 226 45 81
13.54124 10.243711 -29.586279 226 45 81
13.54124 9.876339 -29.586279 226 45 81
13.54124 9.5089674 -29.218906 226 45 81
13.908611 9.5089674 -29.586279 226 45 81
13.908611 9.5089674 -29.95365 226 45 81
13.908611 9.1415958 -29.95365 226 45 81
10.969639 13.917426 -26.279934 226 45 81
10.969639 13.917426 -25.912563 226 45 81
10.602267 14.284798 -27.014677 226 45 81
10.602267 14.284798 -26.647306 226 45 81
10.969639 14.284798 -27.014677 226 45 81
10.969639 14.284798 -26.647306 226 45 81
10.602267 14.284798 -26.279934 226 45 81
9.132781 14.652169 -35.464226 226 45 81
9.132781 14.652169 -35.831596 226 45 81
14.643354 10.243711 -29.95365 226 45 81
14.275983 10.243711 -29.586279 226 45 81
14.275983 10.243711 -29.95365 226 45 81
14.275983 9.876339 -29.95365 226 45 81
14.275983 9.5089674 -29.95365 226 45 81
13.908611 10.243711 -29.218906 226 45 81
13.54124 10.243711 -28.851536 226 45 81
13.54124 10.243711 -29.218906 226 45 81
13.54124 9.876339 -28.851536 226 45 81
10.602267 14.284798 -25.912563 226 45 81
10.602267 14.652169 -26.279934 226 45 81
10.602267 14.652169 -25.912563 226 45 81
10.969639 14.284798 -26.279934 226 45 81
10.969639 14.284798 -25.912563 226 45 81
10.969639 14.652169 -26.279934 226 45 81
10.969639 14.652169 -25.912563 226 45 81
10.234896 14.284798 -35.464226 226 45 81
10.234896 14.284798 -35.831596 226 45 81
9.8675241 14.652169 -35.831596 226 45 81
9.8675241 14.284798 -35.464226 226 45 81
9.8675241 14.284798 -35.831596 226 45 81
10.234896 13.917426 -35.464226 226 45 81
10.234896 13.917426 -35.831596 226 45 81
9.5001526 14.652169 -35.464226 226 45 81
9.5001526 14.652169 -35.831596 226 45 81
9.5001526 14.284798 -35.464226 226 45 81
9.5001526 14.284798 -35.831596 226 45 81
11.33701 13.550055 -27.014677 226 45 81
11.33701 13.550055 -26.647306 226 45 81
11.33701 13.917426 -27.014677 226 45 81
11.33701 13.917426 -26.647306 226 45 81
11.704382 13.550055 -27.014677 226 45 81
11.704382 13.550055 -26.647306 226 45 81
11.704382 13.917426 -27.014677 226 45 81
9.5001526 16.121656 -35.831596 226 45 81
9.5001526 15.754284 -35.831596 226 45 81
9.132781 16.121656 -35.831596 226 45 81
9.132781 15.754284 -35.831596 226 45 81
9.5001526 15.386912 -35.831596 226 45 81
9.5001526 15.019541 -35.831596 226 45 81
9.132781 15.386912 -35.831596 226 45 81
9.132781 15.019541 -35.831596 226 45 81
10.234896 14.284798 -34.729481 226 45 81
10.234896 14.284798 -35.096851 226 45 81
10.234896 14.652169 -35.831596 226 45 81
11.704382 13.917426 -26.647306 226 45 81
11.33701 13.550055 -26.279934 226 45 81
11.33701 13.550055 -25.912563 226 45 81
11.33701 13.917426 -26.279934 226 45 81
11.33701 13.917426 -25.912563 226 45 81
11.704382 13.550055 -26.279934 226 45 81
11.704382 13.917426 -26.279934 226 45 81
10.969639 13.917426 -35.831596 226 45 81
10.602267 13.917426 -35.464226 226 45 81
10.602267 13.917426 -35.831596 226 45 81
10.234896 16.121656 -35.831596 226 45 81
10.234896 15.754284 -35.831596 226 45 81
9.8675241 16.121656 -35.831596 226 45 81
9.8675241 15.754284 -35.831596 226 45 81
10.234896 15.386912 -35.831596 226 45 81
10.234896 15.019541 -35.831596 226 45 81
9.8675241 15.386912 -35.831596 226 45 81
9.8675241 15.019541 -35.831596 226 45 81
11.704382 13.917426 -25.912563 226 45 81
11.704382 14.284798 -26.647306 226 45 81
11.33701 14.284798 -26.279934 226 45 81
11.33701 14.284798 -25.912563 226 45 81
11.704382 14.284798 -26.279934 226 45 81
11.704382 14.284798 -25.912563 226 45 81
12.071754 10.611082 -28.116793 226 45 81
11.33701 13.550055 -35.464226 226 45 81
11.33701 13.550055 -35.831596 226 45 81
10.602267 14.284798 -34.729481 226 45 81
10.602267 14.284798 -35.096851 226 45 81
10.969639 14.652169 -35.831596 226 45 81
10.969639 14.284798 -35.831596 226 45 81
10.602267 14.652169 -35.831596 226 45 81
10.602267 14.284798 -35.831596 226 45 81
10.602267 13.917426 -34.729481 226 45 81
10.602267 13.917426 -35.096851 226 45 81
10.969639 13.917426 -35.464226 226 45 81
12.071754 10.978454 -28.116793 226 45 81
12.439125 10.611082 -28.116793 226 45 81
12.439125 10.978454 -28.484163 226 45 81
12.439125 10.978454 -28.116793 226 45 81
12.071754 10.611082 -27.74942 226 45 81
12.071754 10.611082 -27.38205 226 45 81
12.071754 10.978454 -27.74942 226 45 81
10.602267 15.386912 -35.831596 226 45 81
10.602267 15.019541 -35.831596 226 45 81
11.704382 14.652169 -35.831596 226 45 81
11.704382 14.284798 -35.831596 226 45 81
11.33701 14.652169 -35.831596 226 45 81
11.33701 14.284798 -35.831596 226 45 81
11.704382 13.917426 -35.831596 226 45 81
11.704382 13.550055 -35.464226 226 45 81
11.704382 13.550055 -35.831596 226 45 81
11.33701 13.917426 -35.464226 226 45 81
11.33701 13.917426 -35.831596 226 45 81
12.071754 10.978454 -27.38205 226 45 81
12.439125 10.611082 -27.74942 226 45 81
12.439125 10.978454 -27.74942 226 45 81
12.439125 10.978454 -27.38205 226 45 81
12.439125 11.345825 -28.484163 226 45 81
12.439125 11.345825 -28.116793 226 45 81
12.439125 11.713197 -28.116793 226 45 81
11.33701 15.754284 -35.831596 226 45 81
11.704382 15.386912 -35.831596 226 45 81
11.704382 15.019541 -35.831596 226 45 81
11.33701 15.386912 -35.831596 226 45 81
11.33701 15.019541 -35.831596 226 45 81
10.969639 16.121656 -35.831596 226 45 81
10.969639 15.754284 -35.831596 226 45 81
10.602267 16.121656 -35.831596 226 45 81
10.602267 15.754284 -35.831596 226 45 81
10.969639 15.386912 -35.831596 226 45 81
10.969639 15.019541 -35.831596 226 45 81
12.071754 11.345825 -27.74942 226 45 81
12.071754 11.345825 -27.38205 226 45 81
12.071754 11.713197 -27.74942 226 45 81
12.071754 11.713197 -27.38205 226 45 81
12.439125 11.345825 -27.74942 226 45 81
12.439125 11.345825 -27.38205 226 45 81
12.439125 11.713197 -27.74942 226 45 81
12.806497 12.815311 -35.464226 226 45 81
12.806497 12.815311 -35.831596 226 45 81
12.439125 13.182683 -34.729481 226 45 81
12.439125 13.182683 -35.096851 226 45 81
12.439125 13.182683 -35.464226 226 45 81
12.439125 13.182683 -35.831596 226 45 81
12.071754 13.182683 -35.464226 226 45 81
12.071754 13.182683 -35.831596 226 45 81
11.704382 16.121656 -35.831596 226 45 81
11.704382 15.754284 -35.831596 226 45 81
11.33701 16.121656 -35.831596 226 45 81
12.439125 11.713197 -27.38205 226 45 81
12.806497 10.611082 -28.484163 226 45 81
12.806497 10.611082 -28.116793 226 45 81
12.806497 10.978454 -28.484163 226 45 81
12.806497 10.978454 -28.116793 226 45 81
13.173868 10.611082 -28.484163 226 45 81
13.173868 10.611082 -28.116793 226 45 81
13.54124 13.182683 -35.831596 226 45 81
13.54124 12.815311 -35.464226 226 45 81
13.54124 12.815311 -35.831596 226 45 81
13.908611 12.44794 -35.464226 226 45 81
13.908611 12.44794 -35.831596 226 45 81
13.54124 12.44794 -35.464226 226 45 81
13.173868 13.182683 -35.831596 226 45 81
13.173868 12.815311 -35.464226 226 45 81
13.173868 12.815311 -35.831596 226 45 81
12.806497 13.182683 -35.464226 226 45 81
12.806497 13.182683 -35.831596 226 45 81
13.173868 10.978454 -28.484163 226 45 81
13.173868 10.978454 -28.116793 226 45 81
12.806497 10.611082 -27.74942 226 45 81
12.806497 10.978454 -27.74942 226 45 81
12.806497 11.345825 -28.484163 226 45 81
12.806497 11.345825 -28.116793 226 45 81
12.806497 11.713197 -28.484163 226 45 81
14.643354 12.080568 -35.096851 226 45 81
14.643354 12.44794 -35.464226 226 45 81
14.643354 12.44794 -35.831596 226 45 81
14.643354 12.080568 -35.464226 226 45 81
14.643354 12.080568 -35.831596 226 45 81
14.275983 12.44794 -35.464226 226 45 81
14.275983 12.44794 -35.831596 226 45 81
13.908611 13.182683 -35.831596 226 45 81
13.908611 12.815311 -35.464226 226 45 81
13.908611 12.815311 -35.831596 226 45 81
13.54124 13.182683 -35.464226 226 45 81
12.806497 11.713197 -28.116793 226 45 81
13.173868 11.345825 -28.484163 226 45 81
13.173868 11.345825 -28.116793 226 45 81
13.173868 11.713197 -28.484163 226 45 81
13.173868 11.713197 -28.116793 226 45 81
12.806497 11.345825 -27.74942 226 45 81
12.806497 11.345825 -27.38205 226 45 81
12.439125 13.917426 -35.831596 226 45 81
12.439125 13.550055 -35.831596 226 45 81
12.071754 13.917426 -35.831596 226 45 81
12.071754 13.550055 -35.464226 226 45 81
12.071754 13.550055 -35.831596 226 45 81
14.643354 13.182683 -35.831596 226 45 81
14.643354 12.815311 -35.831596 226 45 81
14.275983 13.182683 -35.831596 226 45 81
14.275983 12.815311 -35.831596 226 45 81
14.643354 12.44794 -34.729481 226 45 81
14.643354 12.44794 -35.096851 226 45 81
12.806497 11.713197 -27.74942 226 45 81
12.806497 11.713197 -27.38205 226 45 81
13.173868 11.345825 -27.74942 226 45 81
13.173868 11.713197 -27.74942 226 45 81
13.173868 11.713197 -27.38205 226 45 81
12.071754 10.978454 -27.014677 226 45 81
12.071754 11.345825 -27.014677 226 45 81
12.806497 14.284798 -35.464226 226 45 81
12.806497 14.284798 -35.831596 226 45 81
13.173868 13.917426 -35.831596 226 45 81
13.173868 13.550055 -35.831596 226 45 81
12.806497 13.917426 -35.831596 226 45 81
12.806497 13.550055 -35.831596 226 45 81
12.439125 14.652169 -35.831596 226 45 81
12.439125 14.284798 -35.464226 226 45 81
12.439125 14.284798 -35.831596 226 45 81
12.071754 14.652169 -35.831596 226 45 81
12.071754 14.284798 -35.831596 226 45 81
12.071754 11.713197 -27.014677 226 45 81
12.439125 11.713197 -27.014677 226 45 81
12.071754 12.080568 -27.38205 226 45 81
12.071754 12.44794 -27.38205 226 45 81
12.439125 12.080568 -27.74942 226 45 81
12.439125 12.080568 -27.38205 226 45 81
12.439125 12.44794 -27.74942 226 45 81
12.439125 16.121656 -35.831596 226 45 81
12.439125 15.754284 -35.831596 226 45 81
12.071754 16.121656 -35.831596 226 45 81
12.071754 15.754284 -35.831596 226 45 81
12.439125 15.386912 -35.831596 226 45 81
12.439125 15.019541 -35.831596 226 45 81
12.071754 15.386912 -35.831596 226 45 81
12.071754 15.019541 -35.831596 226 45 81
13.173868 14.652169 -35.831596 226 45 81
13.173868 14.284798 -35.831596 226 45 81
12.806497 14.652169 -35.831596 226 45 81
12.439125 12.44794 -27.38205 226 45 81
12.071754 13.182683 -28.484163 226 45 81
12.071754 13.182683 -28.116793 226 45 81
12.439125 13.182683 -28.484163 226 45 81
12.439125 13.182683 -28.116793 226 45 81
12.071754 12.815311 -27.38205 226 45 81
12.439125 12.815311 -27.38205 226 45 81
13.908611 13.550055 -35.831596 226 45 81
13.54124 13.917426 -35.831596 226 45 81
13.54124 13.550055 -35.831596 226 45 81
13.173868 16.121656 -35.831596 226 45 81
13.173868 15.754284 -35.831596 226 45 81
12.806497 16.121656 -35.831596 226 45 81
12.806497 15.754284 -35.831596 226 45 81
13.173868 15.386912 -35.831596 226 45 81
13.173868 15.019541 -35.831596 226 45 81
12.806497 15.386912 -35.831596 226 45 81
12.806497 15.019541 -35.831596 226 45 81
12.439125 13.182683 -27.74942 226 45 81
12.439125 13.182683 -27.38205 226 45 81
12.806497 12.080568 -28.116793 226 45 81
12.806497 12.44794 -28.116793 226 45 81
13.173868 12.080568 -28.484163 226 45 81
13.173868 12.080568 -28.116793 226 45 81
13.173868 12.44794 -28.116793 226 45 81
13.908611 15.386912 -35.831596 226 45 81
13.908611 15.019541 -35.831596 226 45 81
13.54124 15.386912 -35.831596 226 45 81
13.54124 15.019541 -35.831596 226 45 81
14.643354 13.550055 -35.831596 226 45 81
14.275983 13.550055 -35.831596 226 45 81
13.908611 14.652169 -35.831596 226 45 81
13.908611 14.284798 -35.831596 226 45 81
13.54124 14.652169 -35.831596 226 45 81
13.54124 14.284798 -35.831596 226 45 81
13.908611 13.917426 -35.831596 226 45 81
12.806497 12.080568 -27.74942 226 45 81
12.806497 12.080568 -27.38205 226 45 81
12.806497 12.44794 -27.74942 226 45 81
12.806497 12.44794 -27.38205 226 45 81
13.173868 12.080568 -27.74942 226 45 81
13.173868 12.080568 -27.38205 226 45 81
13.173868 12.44794 -27.74942 226 45 81
14.275983 16.121656 -35.464226 226 45 81
14.275983 16.121656 -35.831596 226 45 81
14.275983 15.754284 -35.464226 226 45 81
14.275983 15.754284 -35.831596 226 45 81
14.275983 15.386912 -35.831596 226 45 81
14.275983 15.019541 -35.831596 226 45 81
13.908611 16.121656 -35.464226 226 45 81
13.908611 16.121656 -35.831596 226 45 81
13.908611 15.754284 -35.831596 226 45 81
13.54124 16.121656 -35.831596 226 45 81
13.54124 15.754284 -35.831596 226 45 81
13.173868 12.44794 -27.38205 226 45 81
12.806497 13.182683 -28.484163 226 45 81
12.806497 13.182683 -28.116793 226 45 81
13.173868 12.815311 -28.484163 226 45 81
13.173868 12.815311 -28.116793 226 45 81
13.173868 13.182683 -28.484163 226 45 81
13.173868 13.182683 -28.116793 226 45 81
9.5001526 14.652169 -32.157879 226 45 81
9.132781 14.652169 -31.790508 226 45 81
9.132781 14.652169 -32.157879 226 45 81
9.5001526 14.652169 -32.525249 226 45 81
9.132781 14.652169 -32.525249 226 45 81
10.234896 14.284798 -33.627365 226 45 81
10.234896 14.284798 -33.99474 226 45 81
10.234896 14.284798 -34.36211 226 45 81
10.234896 13.917426 -33.259995 226 45 81
10.234896 13.917426 -33.627365 226 45 81
14.643354 16.121656 -35.831596 226 45 81
12.806497 12.815311 -27.74942 226 45 81
12.806497 12.815311 -27.38205 226 45 81
12.806497 13.182683 -27.74942 226 45 81
12.806497 13.182683 -27.38205 226 45 81
13.173868 12.815311 -27.74942 226 45 81
13.173868 12.815311 -27.38205 226 45 81
13.173868 13.182683 -27.74942 226 45 81
10.234896 14.284798 -31.790508 226 45 81
10.234896 14.284798 -32.157879 226 45 81
9.8675241 14.652169 -31.790508 226 45 81
9.8675241 14.652169 -32.157879 226 45 81
9.8675241 14.284798 -31.790508 226 45 81
9.8675241 14.284798 -32.157879 226 45 81
10.234896 14.652169 -32.525249 226 45 81
10.234896 14.284798 -32.525249 226 45 81
9.8675241 14.652169 -32.525249 226 45 81
10.234896 13.917426 -32.892624 226 45 81
9.5001526 14.652169 -31.790508 226 45 81
13.173868 13.182683 -27.38205 226 45 81
12.071754 12.080568 -27.014677 226 45 81
12.071754 12.080568 -26.647306 226 45 81
12.071754 12.44794 -27.014677 226 45 81
12.071754 12.44794 -26.647306 226 45 81
12.439125 12.080568 -27.014677 226 45 81
12.439125 12.44794 -27.014677 226 45 81
9.132781 15.019541 -31.790508 226 45 81
9.132781 15.019541 -32.157879 226 45 81
9.5001526 15.386912 -32.525249 226 45 81
9.5001526 15.386912 -32.892624 226 45 81
9.132781 15.386912 -32.525249 226 45 81
9.132781 15.019541 -32.525249 226 45 81
9.5001526 15.754284 -33.259995 226 45 81
9.132781 16.121656 -33.259995 226 45 81
9.132781 15.754284 -33.259995 226 45 81
10.234896 14.652169 -31.790508 226 45 81
10.234896 14.652169 -32.157879 226 45 81
12.439125 12.44794 -26.647306 226 45 81
12.071754 12.815311 -27.014677 226 45 81
12.071754 12.815311 -26.647306 226 45 81
12.071754 13.182683 -27.014677 226 45 81
12.071754 13.182683 -26.647306 226 45 81
12.439125 12.815311 -27.014677 226 45 81
12.439125 12.815311 -26.647306 226 45 81
10.234896 15.019541 -32.892624 226 45 81
9.8675241 15.386912 -32.525249 226 45 81
9.8675241 15.019541 -32.525249 226 45 81
9.5001526 16.121656 -32.525249 226 45 81
9.5001526 16.121656 -32.892624 226 45 81
9.5001526 15.754284 -32.525249 226 45 81
9.5001526 15.754284 -32.892624 226 45 81
9.132781 16.121656 -32.525249 226 45 81
9.132781 16.121656 -32.892624 226 45 81
9.132781 15.754284 -32.525249 226 45 81
9.132781 15.754284 -32.892624 226 45 81
12.439125 13.182683 -27.014677 226 45 81
12.439125 13.182683 -26.647306 226 45 81
12.071754 12.815311 -26.279934 226 45 81
12.071754 13.182683 -26.279934 226 45 81
12.806497 12.080568 -27.014677 226 45 81
12.806497 12.44794 -27.014677 226 45 81
13.173868 12.44794 -27.014677 226 45 81
10.234896 16.121656 -32.525249 226 45 81
10.234896 16.121656 -32.892624 226 45 81
10.234896 15.754284 -32.525249 226 45 81
10.234896 15.754284 -32.892624 226 45 81
9.8675241 16.121656 -32.525249 226 45 81
9.8675241 16.121656 -32.892624 226 45 81
9.8675241 15.754284 -32.525249 226 45 81
9.8675241 15.754284 -32.892624 226 45 81
10.234896 15.386912 -32.525249 226 45 81
10.234896 15.386912 -32.892624 226 45 81
10.234896 15.019541 -32.525249 226 45 81
12.806497 12.815311 -27.014677 226 45 81
12.806497 12.815311 -26.647306 226 45 81
12.806497 13.182683 -27.014677 226 45 81
12.806497 13.182683 -26.647306 226 45 81
13.173868 12.815311 -27.014677 226 45 81
13.173868 13.182683 -27.014677 226 45 81
13.54124 10.611082 -28.484163 226 45 81
10.602267 13.917426 -31.790508 226 45 81
10.602267 13.917426 -32.157879 226 45 81
10.969639 13.917426 -32.525249 226 45 81
10.969639 13.917426 -32.892624 226 45 81
10.602267 13.917426 -32.892624 226 45 81
10.602267 14.284798 -33.99474 226 45 81
10.602267 14.284798 -34.36211 226 45 81
10.602267 13.917426 -33.259995 226 45 81
10.602267 13.917426 -33.627365 226 45 81
10.602267 13.917426 -33.99474 226 45 81
10.602267 13.917426 -34.36211 226 45 81
13.54124 10.978454 -28.484163 226 45 81
13.54124 10.978454 -28.116793 226 45 81
13.908611 10.978454 -28.484163 226 45 81
13.54124 11.345825 -28.484163 226 45 81
13.54124 11.345825 -28.116793 226 45 81
13.54124 11.713197 -28.484163 226 45 81
13.54124 11.713197 -28.116793 226 45 81
11.33701 13.550055 -32.892624 226 45 81
10.969639 14.284798 -31.790508 226 45 81
10.969639 14.284798 -32.157879 226 45 81
10.602267 14.284798 -31.790508 226 45 81
10.602267 14.284798 -32.157879 226 45 81
10.969639 14.652169 -32.525249 226 45 81
10.969639 14.652169 -32.892624 226 45 81
10.969639 14.284798 -32.525249 226 45 81
10.602267 14.284798 -32.525249 226 45 81
10.969639 13.917426 -31.790508 226 45 81
10.969639 13.917426 -32.157879 226 45 81
13.908611 11.345825 -28.484163 226 45 81
13.908611 11.713197 -28.484163 226 45 81
13.908611 11.713197 -28.116793 226 45 81
13.54124 11.713197 -27.74942 226 45 81
14.275983 11.713197 -28.484163 226 45 81
13.54124 12.080568 -28.484163 226 45 81
13.54124 12.080568 -28.116793 226 45 81
11.33701 13.917426 -31.790508 226 45 81
11.33701 13.917426 -32.157879 226 45 81
11.33701 13.550055 -31.790508 226 45 81
11.33701 13.550055 -32.157879 226 45 81
11.704382 13.917426 -32.525249 226 45 81
11.704382 13.917426 -32.892624 226 45 81
11.704382 13.550055 -32.525249 226 45 81
11.704382 13.550055 -32.892624 226 45 81
11.33701 13.917426 -32.525249 226 45 81
11.33701 13.917426 -32.892624 226 45 81
11.33701 13.550055 -32.525249 226 45 81
13.54124 12.44794 -28.484163 226 45 81
13.54124 12.44794 -28.116793 226 45 81
13.908611 12.080568 -28.484163 226 45 81
13.908611 12.080568 -28.116793 226 45 81
13.908611 12.44794 -28.484163 226 45 81
13.908611 12.44794 -28.116793 226 45 81
13.54124 12.080568 -27.74942 226 45 81
10.602267 15.019541 -32.525249 226 45 81
10.602267 15.019541 -32.892624 226 45 81
11.704382 14.652169 -32.525249 226 45 81
11.704382 14.652169 -32.892624 226 45 81
11.704382 14.284798 -32.525249 226 45 81
11.33701 14.652169 -32.525249 226 45 81
11.33701 14.652169 -32.892624 226 45 81
11.704382 13.917426 -31.790508 226 45 81
11.704382 13.917426 -32.157879 226 45 81
11.704382 13.550055 -31.790508 226 45 81
11.704382 13.550055 -32.157879 226 45 81
13.54124 12.44794 -27.74942 226 45 81
13.54124 12.44794 -27.38205 226 45 81
13.908611 12.44794 -27.74942 226 45 81
13.54124 12.815311 -28.484163 226 45 81
13.54124 12.815311 -28.116793 226 45 81
13.54124 13.182683 -28.484163 226 45 81
13.54124 13.182683 -28.116793 226 45 81
10.969639 15.754284 -32.525249 226 45 81
10.969639 15.754284 -32.892624 226 45 81
10.602267 16.121656 -32.892624 226 45 81
10.602267 15.754284 -32.525249 226 45 81
10.602267 15.754284 -32.892624 226 45 81
10.969639 15.386912 -32.525249 226 45 81
10.969639 15.386912 -32.892624 226 45 81
10.969639 15.019541 -32.525249 226 45 81
10.969639 15.019541 -32.892624 226 45 81
10.602267 15.386912 -32.525249 226 45 81
10.602267 15.386912 -32.892624 226 45 81
13.908611 12.815311 -28.484163 226 45 81
13.908611 12.815311 -28.116793 226 45 81
13.908611 13.182683 -28.484163 226 45 81
13.908611 13.182683 -28.116793 226 45 81
13.54124 12.815311 -27.74942 226 45 81
13.54124 12.815311 -27.38205 226 45 81
13.54124 13.182683 -27.74942 226 45 81
11.704382 15.754284 -32.892624 226 45 81
11.33701 16.121656 -32.892624 226 45 81
11.33701 15.754284 -32.892624 226 45 81
11.704382 15.386912 -32.892624 226 45 81
11.704382 15.019541 -32.525249 226 45 81
11.704382 15.019541 -32.892624 226 45 81
11.33701 15.386912 -32.525249 226 45 81
11.33701 15.386912 -32.892624 226 45 81
11.33701 15.019541 -32.525249 226 45 81
11.33701 15.019541 -32.892624 226 45 81
10.969639 16.121656 -32.892624 226 45 81
13.54124 13.182683 -27.38205 226 45 81
13.908611 12.815311 -27.74942 226 45 81
13.908611 12.815311 -27.38205 226 45 81
13.908611 13.182683 -27.74942 226 45 81
13.908611 13.182683 -27.38205 226 45 81
14.275983 12.080568 -28.484163 226 45 81
14.275983 12.44794 -28.484163 226 45 81
10.234896 13.917426 -30.688393 226 45 81
10.234896 13.917426 -31.055765 226 45 81
9.5001526 14.652169 -30.321022 226 45 81
9.5001526 14.652169 -30.688393 226 45 81
9.132781 14.652169 -30.321022 226 45 81
9.132781 14.652169 -30.688393 226 45 81
9.5001526 14.652169 -31.055765 226 45 81
9.5001526 14.652169 -31.423136 226 45 81
9.132781 14.652169 -31.055765 226 45 81
9.132781 14.652169 -31.423136 226 45 81
11.704382 16.121656 -32.892624 226 45 81
14.275983 12.44794 -28.116793 226 45 81
14.643354 12.44794 -28.484163 226 45 81
14.275983 12.815311 -28.484163 226 45 81
14.275983 12.815311 -28.116793 226 45 81
14.275983 13.182683 -28.484163 226 45 81
14.275983 13.182683 -28.116793 226 45 81
14.643354 12.815311 -28.484163 226 45 81
9.8675241 14.652169 -30.688393 226 45 81
9.8675241 14.284798 -30.321022 226 45 81
9.8675241 14.284798 -30.688393 226 45 81
10.234896 14.652169 -31.055765 226 45 81
10.234896 14.652169 -31.423136 226 45 81
10.234896 14.284798 -31.055765 226 45 81
10.234896 14.284798 -31.423136 226 45 81
9.8675241 14.652169 -31.055765 226 45 81
9.8675241 14.652169 -31.423136 226 45 81
9.8675241 14.284798 -31.055765 226 45 81
9.8675241 14.284798 -31.423136 226 45 81
14.643354 12.815311 -28.116793 226 45 81
14.643354 13.182683 -28.484163 226 45 81
14.643354 13.182683 -28.116793 226 45 81
14.275983 12.815311 -27.74942 226 45 81
14.275983 13.182683 -27.74942 226 45 81
13.54124 13.182683 -27.014677 226 45 81
12.071754 13.550055 -28.484163 226 45 81
9.132781 14.652169 -28.851536 226 45 81
9.132781 14.652169 -29.218906 226 45 81
9.5001526 14.652169 -29.586279 226 45 81
9.5001526 14.652169 -29.95365 226 45 81
9.132781 14.652169 -29.586279 226 45 81
9.132781 14.652169 -29.95365 226 45 81
10.234896 14.652169 -30.321022 226 45 81
10.234896 14.652169 -30.688393 226 45 81
10.234896 14.284798 -30.321022 226 45 81
10.234896 14.284798 -30.688393 226 45 81
9.8675241 14.652169 -30.321022 226 45 81
12.071754 13.550055 -28.116793 226 45 81
12.071754 13.917426 -28.484163 226 45 81
12.439125 13.550055 -28.484163 226 45 81
12.439125 13.550055 -28.116793 226 45 81
12.071754 13.550055 -27.74942 226 45 81
12.071754 13.550055 -27.38205 226 45 81
12.439125 13.550055 -27.74942 226 45 81
10.234896 14.284798 -29.586279 226 45 81
10.234896 14.284798 -29.95365 226 45 81
9.8675241 14.652169 -29.586279 226 45 81
9.8675241 14.652169 -29.95365 226 45 81
9.8675241 14.284798 -29.586279 226 45 81
9.8675241 14.284798 -29.95365 226 45 81
10.234896 13.917426 -29.218906 226 45 81
9.5001526 14.652169 -28.851536 226 45 81
9.5001526 14.652169 -29.218906 226 45 81
9.5001526 14.284798 -28.851536 226 45 81
9.5001526 14.284798 -29.218906 226 45 81
12.439125 13.550055 -27.38205 226 45 81
12.806497 13.550055 -28.484163 226 45 81
12.806497 13.550055 -28.116793 226 45 81
12.806497 13.550055 -27.74942 226 45 81
12.806497 13.550055 -27.38205 226 45 81
13.173868 13.550055 -27.74942 226 45 81
13.173868 13.550055 -27.38205 226 45 81
9.132781 15.019541 -31.423136 226 45 81
10.234896 14.652169 -28.851536 226 45 81
10.234896 14.652169 -29.218906 226 45 81
10.234896 14.284798 -28.851536 226 45 81
10.234896 14.284798 -29.218906 226 45 81
9.8675241 14.652169 -28.851536 226 45 81
9.8675241 14.652169 -29.218906 226 45 81
9.8675241 14.284798 -28.851536 226 45 81
9.8675241 14.284798 -29.218906 226 45 81
10.234896 14.652169 -29.586279 226 45 81
10.234896 14.652169 -29.95365 226 45 81
12.071754 13.550055 -27.014677 226 45 81
12.071754 13.550055 -26.647306 226 45 81
12.071754 13.917426 -26.647306 226 45 81
12.439125 13.550055 -27.014677 226 45 81
12.439125 13.550055 -26.647306 226 45 81
12.439125 13.917426 -27.014677 226 45 81
12.439125 13.917426 -26.647306 226 45 81
10.969639 13.917426 -31.055765 226 45 81
10.969639 13.917426 -31.423136 226 45 81
10.602267 13.917426 -31.055765 226 45 81
10.602267 13.917426 -31.423136 226 45 81
9.132781 15.019541 -28.851536 226 45 81
9.132781 15.019541 -29.218906 226 45 81
9.132781 15.019541 -29.586279 226 45 81
9.132781 15.019541 -29.95365 226 45 81
9.132781 15.019541 -30.321022 226 45 81
9.132781 15.019541 -30.688393 226 45 81
9.132781 15.019541 -31.055765 226 45 81
12.071754 13.550055 -26.279934 226 45 81
12.071754 13.917426 -26.279934 226 45 81
12.439125 13.550055 -26.279934 226 45 81
12.439125 13.917426 -26.279934 226 45 81
12.806497 13.550055 -27.014677 226 45 81
12.806497 13.550055 -26.647306 226 45 81
12.806497 13.917426 -27.014677 226 45 81
-4.092597 23.83646 -24.075705 226 45 81
-2.9904821 23.83646 -24.443077 226 45 81
-2.9904821 23.83646 -24.810448 226 45 81
-3.3578537 23.83646 -24.443077 226 45 81
-3.3578537 23.83646 -24.810448 226 45 81
-2.9904821 23.83646 -25.17782 226 45 81
-2.9904821 23.83646 -25.545191 226 45 81
-3.3578537 23.83646 -25.17782 226 45 81
-3.3578537 23.83646 -25.545191 226 45 81
-3.7252252 24.203831 -24.443077 226 45 81
-3.7252252 24.203831 -24.810448 226 45 81
12.806497 13.917426 -26.647306 226 45 81
13.173868 13.550055 -27.014677 226 45 81
13.173868 13.550055 -26.647306 226 45 81
13.54124 13.550055 -27.74942 226 45 81
13.54124 13.550055 -27.38205 226 45 81
13.54124 13.550055 -27.014677 226 45 81
6.5611796 16.489027 -28.484163 226 45 81
10.969639 14.284798 -31.423136 226 45 81
10.602267 14.284798 -31.055765 226 45 81
10.602267 14.284798 -31.423136 226 45 81
10.969639 13.917426 -30.321022 226 45 81
10.969639 13.917426 -30.688393 226 45 81
10.602267 13.917426 -30.321022 226 45 81
10.602267 13.917426 -30.688393 226 45 81
10.969639 14.284798 -31.055765 226 45 81
10.602267 14.284798 -30.688393 226 45 81
10.602267 14.284798 -30.321022 226 45 81
10.969639 14.284798 -30.688393 226 45 81
10.969639 14.284798 -30.321022 226 45 81
11.33701 13.550055 -31.423136 226 45 81
-8.5010557 -6.2880116 -33.99474 226 45 81
-8.5010557 -6.2880116 -34.36211 226 45 81
-8.1336842 -6.6553836 -33.259995 226 45 81
-8.1336842 -6.6553836 -33.627365 226 45 81
-8.1336842 -6.6553836 -33.99474 226 45 81
-8.1336842 -6.6553836 -34.36211 226 45 81
-6.6641979 -7.0227551 -34.729481 226 45 81
-6.6641979 -7.0227551 -35.096851 226 45 81
-7.0315695 -7.0227551 -34.729481 226 45 81
-7.0315695 -7.0227551 -35.096851 226 45 81
-6.6641979 -7.0227551 -35.464226 226 45 81
-6.6641979 -7.0227551 -35.831596 226 45 81
-7.0315695 -7.0227551 -35.464226 226 45 81
-7.0315695 -7.0227551 -35.831596 226 45 81
-7.398941 -6.6553836 -34.729481 226 45 81
-7.398941 -6.6553836 -35.096851 226 45 81
-7.398941 -7.0227551 -34.729481 226 45 81
-7.398941 -7.0227551 -35.096851 226 45 81
-7.7663126 -6.6553836 -34.729481 226 45 81
-7.7663126 -6.6553836 -35.096851 226 45 81
-7.398941 -6.6553836 -35.464226 226 45 81
-7.398941 -6.6553836 -35.831596 226 45 81
-7.398941 -7.0227551 -35.464226 226 45 81
-7.398941 -7.0227551 -35.831596 226 45 81
-7.7663126 -6.6553836 -35.464226 226 45 81
-7.7663126 -6.6553836 -35.831596 226 45 81
-7.7663126 -7.0227551 -35.831596 226 45 81
-8.1336842 -6.2880116 -34.729481 226 45 81
-8.1336842 -6.2880116 -35.096851 226 45 81
-8.5010557 -6.2880116 -34.729481 226 45 81
-8.5010557 -6.2880116 -35.096851 226 45 81
-8.1336842 -6.2880116 -35.464226 226 45 81
-8.1336842 -6.2880116 -35.831596 226 45 81
-8.5010557 -6.2880116 -35.464226 226 45 81
-8.5010557 -6.2880116 -35.831596 226 45 81
-8.1336842 -6.6553836 -34.729481 226 45 81
-8.1336842 -6.6553836 -35.096851 226 45 81
-8.1336842 -6.6553836 -35.464226 226 45 81
-8.1336842 -6.6553836 -35.831596 226 45 81
-8.1336842 -7.0227551 -35.831596 226 45 81
-8.5010557 -6.6553836 -35.831596 226 45 81
-8.5010557 -7.0227551 -35.464226 226 45 81
-8.5010557 -7.0227551 -35.831596 226 45 81
-8.1336842 -7.0227551 -36.198967 226 45 81
2.8874636 -7.7574983 -28.851536 226 45 81
2.8874636 -8.1248693 -28.851536 226 45 81
2.8874636 -8.4922409 -28.851536 226 45 81
2.520092 -8.4922409 -28.851536 226 45 81
2.8874636 -8.8596134 -28.851536 226 45 81
2.8874636 -8.8596134 -29.218906 226 45 81
2.8874636 -9.226985 -28.851536 226 45 81
2.8874636 -9.226985 -29.218906 226 45 81
2.520092 -8.8596134 -28.851536 226 45 81
2.520092 -9.226985 -28.851536 226 45 81
2.8874636 -9.5943565 -28.851536 226 45 81
2.8874636 -9.5943565 -29.218906 226 45 81
2.8874636 -9.9617281 -29.218906 226 45 81
2.520092 -9.5943565 -28.851536 226 45 81
2.520092 -9.5943565 -29.218906 226 45 81
2.520092 -9.9617281 -28.851536 226 45 81
2.520092 -9.9617281 -29.218906 226 45 81
2.8874636 -9.5943565 -29.586279 226 45 81
2.8874636 -9.9617281 -29.586279 226 45 81
2.1527205 -9.226985 -28.851536 226 45 81
2.1527205 -9.5943565 -28.851536 226 45 81
2.1527205 -9.9617281 -28.851536 226 45 81
1.7853488 -9.9617281 -28.851536 226 45 81
0.31586236 -9.9617281 -29.218906 226 45 81
0.31586236 -9.9617281 -29.586279 226 45 81
0.31586236 -9.9617281 -30.321022 226 45 81
0.31586236 -9.9617281 -31.055765 226 45 81
0.31586236 -9.9617281 -31.790508 226 45 81
0.31586236 -9.9617281 -32.157879 226 45 81
0.31586236 -9.9617281 -32.892624 226 45 81
0.31586236 -9.9617281 -33.259995 226 45 81
0.31586236 -9.9617281 -33.99474 226 45 81
2.8874636 -10.3291 -29.218906 226 45 81
2.520092 -10.3291 -28.851536 226 45 81
2.520092 -10.3291 -29.218906 226 45 81
2.520092 -10.696471 -29.218906 226 45 81
2.8874636 -10.3291 -29.586279 226 45 81
2.8874636 -10.3291 -29.95365 226 45 81
2.8874636 -10.696471 -29.586279 226 45 81
2.8874636 -10.696471 -29.95365 226 45 81
2.520092 -10.696471 -29.586279 226 45 81
2.520092 -11.063843 -29.218906 226 45 81
2.520092 -11.431214 -29.218906 226 45 81
2.8874636 -11.063843 -29.586279 226 45 81
2.8874636 -11.063843 -29.95365 226 45 81
2.8874636 -11.431214 -29.586279 226 45 81
2.8874636 -11.431214 -29.95365 226 45 81
2.520092 -11.063843 -29.586279 226 45 81
2.520092 -11.063843 -29.95365 226 45 81
2.520092 -11.431214 -29.586279 226 45 81
2.520092 -11.431214 -29.95365 226 45 81
2.1527205 -10.3291 -28.851536 226 45 81
2.1527205 -10.3291 -29.218906 226 45 81
2.1527205 -10.696471 -28.851536 226 45 81
2.1527205 -10.696471 -29.218906 226 45 81
1.7853488 -10.3291 -28.851536 226 45 81
1.7853488 -10.696471 -28.851536 226 45 81
1.7853488 -10.696471 -29.218906 226 45 81
1.7853488 -10.696471 -29.586279 226 45 81
1.7853488 -10.696471 -29.95365 226 45 81
2.1527205 -11.063843 -28.851536 226 45 81
2.1527205 -11.063843 -29.218906 226 45 81
2.1527205 -11.431214 -28.851536 226 45 81
2.1527205 -11.431214 -29.218906 226 45 81
1.7853488 -11.063843 -28.851536 226 45 81
1.7853488 -11.063843 -29.218906 226 45 81
1.7853488 -11.431214 -28.851536 226 45 81
1.7853488 -11.431214 -29.218906 226 45 81
2.1527205 -11.063843 -29.586279 226 45 81
2.1527205 -11.063843 -29.95365 226 45 81
2.1527205 -11.431214 -29.586279 226 45 81
2.1527205 -11.431214 -29.95365 226 45 81
1.7853488 -11.063843 -29.586279 226 45 81
1.7853488 -11.063843 -29.95365 226 45 81
1.7853488 -11.431214 -29.586279 226 45 81
2.8874636 -11.431214 -30.321022 226 45 81
2.8874636 -11.431214 -30.688393 226 45 81
2.520092 -11.063843 -30.321022 226 45 81
2.520092 -11.063843 -30.688393 226 45 81
2.520092 -11.431214 -30.321022 226 45 81
2.520092 -11.431214 -30.688393 226 45 81
2.8874636 -11.431214 -31.055765 226 45 81
2.8874636 -11.431214 -31.423136 226 45 81
2.520092 -11.063843 -31.055765 226 45 81
2.520092 -11.063843 -31.423136 226 45 81
2.520092 -11.431214 -31.055765 226 45 81
2.520092 -11.431214 -31.423136 226 45 81
1.7853488 -10.696471 -30.321022 226 45 81
1.7853488 -10.696471 -30.688393 226 45 81
1.7853488 -10.696471 -31.055765 226 45 81
1.7853488 -10.696471 -31.423136 226 45 81
2.1527205 -11.063843 -30.321022 226 45 81
2.1527205 -11.063843 -30.688393 226 45 81
1.7853488 -11.063843 -30.321022 226 45 81
1.7853488 -11.063843 -30.688393 226 45 81
2.1527205 -11.063843 -31.055765 226 45 81
2.1527205 -11.063843 -31.423136 226 45 81
1.7853488 -11.063843 -31.055765 226 45 81
1.7853488 -11.063843 -31.423136 226 45 81
2.8874636 -11.798586 -29.95365 226 45 81
2.520092 -11.798586 -29.586279 226 45 81
2.520092 -11.798586 -29.95365 226 45 81
2.1527205 -11.798586 -29.586279 226 45 81
2.8874636 -11.798586 -30.321022 226 45 81
2.8874636 -11.798586 -30.688393 226 45 81
2.520092 -11.798586 -30.321022 226 45 81
2.8874636 -11.798586 -31.055765 226 45 81
1.4179772 -10.696471 -28.851536 226 45 81
1.4179772 -10.696471 -29.218906 226 45 81
1.0506055 -10.3291 -28.851536 226 45 81
1.0506055 -10.3291 -29.218906 226 45 81
1.0506055 -10.696471 -28.851536 226 45 81
1.0506055 -10.696471 -29.218906 226 45 81
1.4179772 -10.696471 -29.586279 226 45 81
1.4179772 -10.696471 -29.95365 226 45 81
1.0506055 -10.3291 -29.586279 226 45 81
1.0506055 -10.3291 -29.95365 226 45 81
1.0506055 -10.696471 -29.586279 226 45 81
1.0506055 -10.696471 -29.95365 226 45 81
1.4179772 -11.063843 -28.851536 226 45 81
1.4179772 -11.063843 -29.218906 226 45 81
1.4179772 -11.431214 -28.851536 226 45 81
1.4179772 -11.431214 -29.218906 226 45 81
1.0506055 -11.063843 -28.851536 226 45 81
0.68323398 -10.3291 -28.851536 226 45 81
0.68323398 -10.3291 -29.218906 226 45 81
0.31586236 -10.3291 -28.851536 226 45 81
0.31586236 -10.3291 -29.218906 226 45 81
0.68323398 -10.3291 -29.586279 226 45 81
0.68323398 -10.3291 -29.95365 226 45 81
0.31586236 -10.3291 -29.586279 226 45 81
0.31586236 -10.3291 -29.95365 226 45 81
1.4179772 -10.696471 -30.321022 226 45 81
1.4179772 -10.696471 -30.688393 226 45 81
1.0506055 -10.3291 -30.321022 226 45 81
1.0506055 -10.3291 -30.688393 226 45 81
1.0506055 -10.696471 -30.321022 226 45 81
1.0506055 -10.696471 -30.688393 226 45 81
1.4179772 -10.696471 -31.055765 226 45 81
1.4179772 -10.696471 -31.423136 226 45 81
1.0506055 -10.3291 -31.055765 226 45 81
1.0506055 -10.3291 -31.423136 226 45 81
1.0506055 -10.696471 -31.055765 226 45 81
1.0506055 -10.696471 -31.423136 226 45 81
0.68323398 -10.3291 -30.321022 226 45 81
0.68323398 -10.3291 -30.688393 226 45 81
0.31586236 -10.3291 -30.321022 226 45 81
0.31586236 -10.3291 -30.688393 226 45 81
0.68323398 -10.3291 -31.055765 226 45 81
0.68323398 -10.3291 -31.423136 226 45 81
0.31586236 -10.3291 -31.055765 226 45 81
0.31586236 -10.3291 -31.423136 226 45 81
2.8874636 -11.431214 -31.790508 226 45 81
2.8874636 -11.431214 -32.157879 226 45 81
2.520092 -11.063843 -31.790508 226 45 81
2.520092 -11.063843 -32.157879 226 45 81
2.520092 -11.431214 -31.790508 226 45 81
2.520092 -11.431214 -32.157879 226 45 81
2.8874636 -11.063843 -32.892624 226 45 81
2.8874636 -11.431214 -32.525249 226 45 81
2.8874636 -11.431214 -32.892624 226 45 81
2.520092 -11.063843 -32.525249 226 45 81
2.520092 -11.063843 -32.892624 226 45 81
2.520092 -11.431214 -32.525249 226 45 81
2.520092 -11.431214 -32.892624 226 45 81
1.7853488 -10.696471 -31.790508 226 45 81
1.7853488 -10.696471 -32.157879 226 45 81
1.7853488 -10.696471 -32.525249 226 45 81
1.7853488 -10.696471 -32.892624 226 45 81
2.1527205 -11.063843 -31.790508 226 45 81
2.1527205 -11.063843 -32.157879 226 45 81
1.7853488 -11.063843 -31.790508 226 45 81
1.7853488 -11.063843 -32.157879 226 45 81
2.1527205 -11.063843 -32.525249 226 45 81
2.1527205 -11.063843 -32.892624 226 45 81
1.7853488 -11.063843 -32.525249 226 45 81
1.7853488 -11.063843 -32.892624 226 45 81
2.8874636 -11.431214 -33.259995 226 45 81
2.8874636 -11.431214 -33.627365 226 45 81
2.520092 -11.063843 -33.259995 226 45 81
2.520092 -11.063843 -33.627365 226 45 81
2.520092 -11.431214 -33.259995 226 45 81
2.520092 -11.431214 -33.627365 226 45 81
2.8874636 -11.063843 -33.99474 226 45 81
2.8874636 -11.431214 -33.99474 226 45 81
2.8874636 -11.431214 -34.36211 226 45 81
2.520092 -11.063843 -33.99474 226 45 81
2.520092 -11.063843 -34.36211 226 45 81
2.520092 -11.431214 -33.99474 226 45 81
2.520092 -11.431214 -34.36211 226 45 81
1.7853488 -10.696471 -33.259995 226 45 81
1.7853488 -10.696471 -33.627365 85 83 190
1.7853488 -10.696471 -33.99474 85 83 190
1.7853488 -10.696471 -34.36211 226 45 81
2.1527205 -11.063843 -33.259995 226 45 81
2.1527205 -11.063843 -33.627365 85 83 190
1.7853488 -11.063843 -33.259995 226 45 81
1.7853488 -11.063843 -33.627365 85 83 190
2.1527205 -11.063843 -33.99474 85 83 190
2.1527205 -11.063843 -34.36211 226 45 81
1.7853488 -11.063843 -33.99474 85 83 190
1.7853488 -11.063843 -34.36211 226 45 81
1.4179772 -10.696471 -31.790508 226 45 81
1.4179772 -10.696471 -32.157879 226 45 81
1.0506055 -10.3291 -31.790508 226 45 81
1.0506055 -10.3291 -32.157879 226 45 81
1.0506055 -10.696471 -31.790508 226 45 81
1.0506055 -10.696471 -32.157879 226 45 81
1.4179772 -10.696471 -32.525249 226 45 81
1.4179772 -10.696471 -32.892624 226 45 81
1.0506055 -10.3291 -32.525249 226 45 81
1.0506055 -10.3291 -32.892624 226 45 81
1.0506055 -10.696471 -32.525249 226 45 81
1.0506055 -10.696471 -32.892624 226 45 81
0.68323398 -10.3291 -31.790508 226 45 81
0.68323398 -10.3291 -32.157879 226 45 81
0.31586236 -10.3291 -31.790508 226 45 81
0.31586236 -10.3291 -32.157879 226 45 81
0.68323398 -10.3291 -32.525249 226 45 81
0.68323398 -10.3291 -32.892624 226 45 81
0.31586236 -10.3291 -32.525249 226 45 81
0.31586236 -10.3291 -32.892624 226 45 81
1.4179772 -10.696471 -33.259995 226 45 81
1.4179772 -10.696471 -33.627365 226 45 81
1.0506055 -10.3291 -33.259995 226 45 81
1.0506055 -10.3291 -33.627365 226 45 81
1.0506055 -10.696471 -33.259995 226 45 81
1.0506055 -10.696471 -33.627365 226 45 81
1.4179772 -10.696471 -33.99474 226 45 81
1.4179772 -10.696471 -34.36211 226 45 81
1.0506055 -10.3291 -33.99474 226 45 81
1.0506055 -10.3291 -34.36211 226 45 81
1.0506055 -10.696471 -33.99474 226 45 81
1.0506055 -10.696471 -34.36211 226 45 81
0.68323398 -10.3291 -33.259995 226 45 81
0.68323398 -10.3291 -33.627365 226 45 81
0.31586236 -10.3291 -33.259995 226 45 81
0.31586236 -10.3291 -33.627365 226 45 81
0.68323398 -10.3291 -33.99474 226 45 81
0.68323398 -10.3291 -34.36211 226 45 81
0.31586236 -10.3291 -33.99474 226 45 81
0.31586236 -10.3291 -34.36211 226 45 81
-0.78625244 -7.3901267 -28.851536 226 45 81
-0.78625244 -7.7574983 -28.851536 226 45 81
-1.1536241 -7.3901267 -28.851536 226 45 81
-1.1536241 -7.3901267 -29.218906 226 45 81
-1.1536241 -7.7574983 -28.851536 226 45 81
-1.1536241 -7.7574983 -29.218906 226 45 81
-0.78625244 -8.1248693 -28.851536 226 45 81
-1.1536241 -8.1248693 -28.851536 226 45 81
-1.1536241 -8.4922409 -28.851536 226 45 81
-0.051509239 -9.9617281 -28.851536 226 45 81
-0.051509239 -9.9617281 -29.218906 226 45 81
-0.41888085 -9.9617281 -28.851536 226 45 81
-0.41888085 -9.9617281 -29.218906 226 45 81
-0.051509239 -9.9617281 -29.586279 226 45 81
-0.051509239 -9.9617281 -29.95365 226 45 81
-0.41888085 -9.9617281 -29.586279 226 45 81
-0.41888085 -9.9617281 -29.95365 226 45 81
-1.1536241 -8.8596134 -28.851536 226 45 81
-0.78625244 -9.5943565 -28.851536 226 45 81
-0.78625244 -9.5943565 -29.218906 226 45 81
-0.78625244 -9.9617281 -28.851536 226 45 81
-0.78625244 -9.9617281 -29.218906 226 45 81
-1.1536241 -9.5943565 -28.851536 226 45 81
-1.1536241 -9.5943565 -29.218906 226 45 81
-1.1536241 -9.9617281 -28.851536 226 45 81
-0.78625244 -9.5943565 -29.586279 226 45 81
-0.78625244 -9.5943565 -29.95365 226 45 81
-0.78625244 -9.9617281 -29.586279 226 45 81
-0.78625244 -9.9617281 -29.95365 226 45 81
-1.1536241 -9.5943565 -29.586279 226 45 81
-1.1536241 -9.5943565 -29.95365 226 45 81
-0.051509239 -9.9617281 -30.321022 226 45 81
-0.051509239 -9.9617281 -30.688393 226 45 81
-0.41888085 -9.9617281 -30.321022 226 45 81
-0.41888085 -9.9617281 -30.688393 226 45 81
-0.051509239 -9.9617281 -31.055765 226 45 81
-0.051509239 -9.9617281 -31.423136 226 45 81
-0.41888085 -9.9617281 -31.055765 226 45 81
-0.41888085 -9.9617281 -31.423136 226 45 81
-0.78625244 -9.5943565 -30.321022 226 45 81
-0.78625244 -9.5943565 -30.688393 226 45 81
-0.78625244 -9.9617281 -30.321022 226 45 81
-0.78625244 -9.9617281 -30.688393 226 45 81
-1.1536241 -9.5943565 -30.321022 226 45 81
-1.1536241 -9.5943565 -30.688393 226 45 81
-0.78625244 -9.5943565 -31.055765 226 45 81
-0.78625244 -9.5943565 -31.423136 226 45 81
-0.78625244 -9.9617281 -31.055765 226 45 81
-0.78625244 -9.9617281 -31.423136 226 45 81
-1.1536241 -9.5943565 -31.055765 226 45 81
-1.1536241 -9.5943565 -31.423136 226 45 81
-1.5209956 -7.3901267 -28.851536 226 45 81
-1.5209956 -7.3901267 -29.218906 226 45 81
-1.5209956 -7.7574983 -28.851536 226 45 81
-1.5209956 -7.7574983 -29.218906 226 45 81
-1.8883672 -7.3901267 -29.218906 226 45 81
-1.8883672 -7.7574983 -29.218906 226 45 81
-1.5209956 -7.3901267 -29.586279 226 45 81
-1.8883672 -7.3901267 -29.586279 226 45 81
-1.8883672 -7.3901267 -29.95365 226 45 81
-1.8883672 -7.7574983 -29.586279 226 45 81
-1.8883672 -7.7574983 -29.95365 226 45 81
-1.5209956 -8.1248693 -28.851536 226 45 81
-1.5209956 -8.1248693 -29.218906 226 45 81
-1.5209956 -8.4922409 -28.851536 226 45 81
-1.5209956 -8.4922409 -29.218906 226 45 81
-1.8883672 -8.1248693 -29.218906 226 45 81
-1.8883672 -8.4922409 -28.851536 226 45 81
-1.8883672 -8.4922409 -29.218906 226 45 81
-1.8883672 -8.1248693 -29.586279 226 45 81
-1.8883672 -8.4922409 -29.586279 226 45 81
-2.2557387 -7.3901267 -29.586279 226 45 81
-2.2557387 -7.3901267 -29.95365 226 45 81
-2.2557387 -7.7574983 -29.586279 226 45 81
-2.2557387 -7.7574983 -29.95365 226 45 81
-2.6231105 -7.7574983 -29.95365 226 45 81
-2.2557387 -8.1248693 -29.218906 226 45 81
-2.2557387 -8.4922409 -29.218906 226 45 81
-2.2557387 -8.1248693 -29.586279 226 45 81
-2.2557387 -8.1248693 -29.95365 226 45 81
-2.2557387 -8.4922409 -29.586279 226 45 81
-2.2557387 -8.4922409 -29.95365 226 45 81
-2.6231105 -8.1248693 -29.95365 226 45 81
-2.6231105 -8.4922409 -29.586279 226 45 81
-2.6231105 -8.4922409 -29.95365 226 45 81
-2.2557387 -7.3901267 -30.321022 226 45 81
-2.2557387 -7.7574983 -30.321022 226 45 81
-2.6231105 -7.3901267 -30.321022 226 45 81
-2.6231105 -7.3901267 -30.688393 226 45 81
-2.6231105 -7.7574983 -30.321022 226 45 81
-2.6231105 -7.7574983 -30.688393 226 45 81
-2.6231105 -7.3901267 -31.055765 226 45 81
-2.6231105 -8.1248693 -30.321022 226 45 81
-2.6231105 -8.1248693 -30.688393 226 45 81
-2.6231105 -8.4922409 -30.321022 226 45 81
-1.5209956 -8.8596134 -28.851536 226 45 81
-1.5209956 -9.226985 -28.851536 226 45 81
-1.5209956 -9.226985 -29.218906 226 45 81
-1.8883672 -8.8596134 -28.851536 226 45 81
-1.8883672 -8.8596134 -29.218906 226 45 81
-1.8883672 -9.226985 -28.851536 226 45 81
-1.8883672 -9.226985 -29.218906 226 45 81
-1.5209956 -9.226985 -29.586279 226 45 81
-1.5209956 -9.226985 -29.95365 226 45 81
-1.8883672 -9.226985 -29.586279 226 45 81
-1.8883672 -9.226985 -29.95365 226 45 81
-1.5209956 -9.5943565 -28.851536 226 45 81
-1.5209956 -9.5943565 -29.218906 226 45 81
-1.5209956 -9.9617281 -28.851536 226 45 81
-1.8883672 -9.5943565 -28.851536 226 45 81
-1.8883672 -9.5943565 -29.218906 226 45 81
-1.8883672 -9.9617281 -28.851536 226 45 81
-1.8883672 -9.9617281 -29.218906 226 45 81
-1.5209956 -9.5943565 -29.586279 226 45 81
-1.5209956 -9.5943565 -29.95365 226 45 81
-2.2557387 -8.8596134 -29.218906 226 45 81
-2.2557387 -9.226985 -28.851536 226 45 81
-2.2557387 -9.226985 -29.218906 226 45 81
-2.6231105 -9.226985 -29.218906 226 45 81
-2.2557387 -8.8596134 -29.586279 226 45 81
-2.2557387 -8.8596134 -29.95365 226 45 81
-2.2557387 -9.226985 -29.586279 226 45 81
-2.2557387 -9.226985 -29.95365 226 45 81
