# .PCD v0.7 - Point Cloud Data file format
VERSION 0.7
FIELDS x y z intensity
SIZE 4 4 4 4
TYPE F F F F
COUNT 1 1 1 1
WIDTH 1264
HEIGHT 1
VIEWPOINT 0 0 0 1 0 0 0
POINTS 1264
DATA ascii
0.16759612 -0.41086569 -1.1668823 0
0.16759612 -0.41886568 -1.1588823 0
0.16759612 -0.41886568 -1.1668823 0
0.15959612 -0.41086569 -1.1588823 255
0.15959612 -0.41886568 -1.1588823 255
0.16759612 -0.4268657 -1.1668823 0
0.16759612 -0.43486568 -1.1668823 0
0.15959612 -0.4268657 -1.1588823 255
0.15959612 -0.4268657 -1.1668823 255
0.15959612 -0.43486568 -1.1588823 255
0.15159611 -0.41086569 -1.1508822 255
0.14359611 -0.41086569 -1.1508822 255
0.14359611 -0.41886568 -1.1508822 255
0.15159611 -0.41086569 -1.1588823 255
0.15159611 -0.41886568 -1.1588823 255
0.15159611 -0.4268657 -1.1588823 255
0.15159611 -0.43486568 -1.1588823 255
0.14359611 -0.4268657 -1.1588823 255
0.14359611 -0.43486568 -1.1588823 255
0.13559611 -0.37886569 -1.1428822 255
0.13559611 -0.38686568 -1.1508822 255
0.12759611 -0.37886569 -1.1508822 255
0.12759611 -0.38686568 -1.1508822 255
0.13559611 -0.39486569 -1.1508822 255
0.13559611 -0.40286568 -1.1508822 255
0.12759611 -0.39486569 -1.1508822 255
0.12759611 -0.40286568 -1.1588823 255
0.11959612 -0.37886569 -1.1508822 255
0.11959612 -0.38686568 -1.1508822 255
0.11159611 -0.37886569 -1.1508822 255
0.11159611 -0.38686568 -1.1508822 255
0.11959612 -0.39486569 -1.1508822 255
0.11959612 -0.40286568 -1.1588823 255
0.11159611 -0.39486569 -1.1588823 255
0.11159611 -0.40286568 -1.1588823 255
0.13559611 -0.41086569 -1.1588823 255
0.13559611 -0.41886568 -1.1588823 255
0.12759611 -0.41086569 -1.1588823 255
0.12759611 -0.41886568 -1.1588823 255
0.13559611 -0.4268657 -1.1588823 255
0.13559611 -0.43486568 -1.1588823 255
0.12759611 -0.4268657 -1.1588823 255
0.12759611 -0.43486568 -1.1588823 255
0.11959612 -0.41086569 -1.1588823 255
0.11959612 -0.41886568 -1.1588823 255
0.11159611 -0.41086569 -1.1588823 255
0.11159611 -0.41886568 -1.1588823 255
0.11959612 -0.4268657 -1.1588823 255
0.11959612 -0.43486568 -1.1588823 255
0.11159611 -0.4268657 -1.1588823 255
0.11159611 -0.43486568 -1.1588823 255
0.11159611 -0.43486568 -1.1668823 255
0.10359611 -0.31486568 -1.1428822 255
0.10359611 -0.32286569 -1.1428822 255
0.095596112 -0.31486568 -1.1508822 255
0.095596112 -0.32286569 -1.1508822 255
0.10359611 -0.33086568 -1.1428822 255
0.10359611 -0.33086568 -1.1508822 255
0.10359611 -0.3388657 -1.1508822 255
0.095596112 -0.33086568 -1.1508822 255
0.095596112 -0.3388657 -1.1508822 255
0.087596111 -0.31486568 -1.1508822 255
0.087596111 -0.32286569 -1.1588823 255
0.07959611 -0.31486568 -1.1588823 255
0.07959611 -0.32286569 -1.1588823 255
0.087596111 -0.33086568 -1.1508822 255
0.087596111 -0.3388657 -1.1508822 255
0.087596111 -0.33086568 -1.1588823 255
0.07959611 -0.33086568 -1.1588823 255
0.07959611 -0.3388657 -1.1588823 255
0.10359611 -0.34686568 -1.1508822 255
0.10359611 -0.3548657 -1.1508822 255
0.095596112 -0.34686568 -1.1508822 255
0.095596112 -0.3548657 -1.1508822 255
0.095596112 -0.3548657 -1.1588823 255
0.10359611 -0.36286569 -1.1508822 255
0.10359611 -0.3708657 -1.1508822 255
0.095596112 -0.36286569 -1.1508822 255
0.095596112 -0.36286569 -1.1588823 255
0.095596112 -0.3708657 -1.1588823 255
0.087596111 -0.34686568 -1.1508822 255
0.087596111 -0.3548657 -1.1588823 255
0.07959611 -0.34686568 -1.1588823 255
0.07959611 -0.34686568 -1.1668823 255
0.07959611 -0.3548657 -1.1588823 255
0.07959611 -0.3548657 -1.1668823 255
0.087596111 -0.36286569 -1.1588823 255
0.087596111 -0.3708657 -1.1588823 255
0.07959611 -0.36286569 -1.1668823 255
0.07959611 -0.3708657 -1.1668823 255
0.071596116 -0.31486568 -1.1588823 255
0.071596116 -0.32286569 -1.1588823 255
0.071596116 -0.32286569 -1.1668823 255
0.063596115 -0.31486568 -1.1588823 255
0.063596115 -0.32286569 -1.1668823 255
0.071596116 -0.33086568 -1.1588823 255
0.071596116 -0.33086568 -1.1668823 255
0.071596116 -0.3388657 -1.1588823 255
0.071596116 -0.3388657 -1.1668823 255
0.063596115 -0.33086568 -1.1668823 255
0.063596115 -0.3388657 -1.1668823 255
0.055596113 -0.31486568 -1.1668823 255
0.055596113 -0.32286569 -1.1668823 255
0.063596115 -0.3388657 -1.1748823 255
0.055596113 -0.32286569 -1.1748823 255
0.047596112 -0.31486568 -1.1748823 255
0.047596112 -0.32286569 -1.1748823 255
0.055596113 -0.33086568 -1.1748823 255
0.055596113 -0.3388657 -1.1748823 255
0.047596112 -0.33086568 -1.1748823 255
0.047596112 -0.3388657 -1.1748823 255
0.047596112 -0.3388657 -1.1828823 255
0.071596116 -0.34686568 -1.1668823 255
0.071596116 -0.3548657 -1.1668823 255
0.063596115 -0.34686568 -1.1668823 255
0.071596116 -0.36286569 -1.1668823 255
0.071596116 -0.3708657 -1.1668823 255
0.071596116 -0.3548657 -1.1748823 255
0.063596115 -0.34686568 -1.1748823 255
0.063596115 -0.3548657 -1.1748823 255
0.071596116 -0.36286569 -1.1748823 255
0.071596116 -0.3708657 -1.1748823 255
0.063596115 -0.36286569 -1.1748823 255
0.063596115 -0.3708657 -1.1748823 255
0.055596113 -0.34686568 -1.1748823 255
0.055596113 -0.3548657 -1.1748823 255
0.055596113 -0.3548657 -1.1828823 255
0.047596112 -0.34686568 -1.1748823 255
0.047596112 -0.34686568 -1.1828823 255
0.047596112 -0.3548657 -1.1828823 255
0.055596113 -0.36286569 -1.1748823 255
0.055596113 -0.36286569 -1.1828823 255
0.055596113 -0.3708657 -1.1748823 255
0.055596113 -0.3708657 -1.1828823 255
0.047596112 -0.36286569 -1.1828823 255
0.047596112 -0.3708657 -1.1828823 255
0.047596112 -0.36286569 -1.1908823 255
0.047596112 -0.3708657 -1.1908823 255
0.10359611 -0.37886569 -1.1508822 255
0.10359611 -0.38686568 -1.1508822 255
0.095596112 -0.37886569 -1.1588823 255
0.095596112 -0.38686568 -1.1588823 255
0.10359611 -0.39486569 -1.1588823 255
0.10359611 -0.40286568 -1.1588823 255
0.095596112 -0.39486569 -1.1588823 255
0.095596112 -0.40286568 -1.1588823 255
0.095596112 -0.40286568 -1.1668823 255
0.087596111 -0.37886569 -1.1588823 255
0.087596111 -0.37886569 -1.1668823 255
0.087596111 -0.38686568 -1.1588823 255
0.087596111 -0.38686568 -1.1668823 255
0.07959611 -0.37886569 -1.1668823 255
0.07959611 -0.38686568 -1.1668823 255
0.087596111 -0.39486569 -1.1588823 255
0.087596111 -0.39486569 -1.1668823 255
0.087596111 -0.40286568 -1.1668823 255
0.07959611 -0.39486569 -1.1668823 255
0.07959611 -0.40286568 -1.1668823 255
0.07959611 -0.37886569 -1.1748823 255
0.07959611 -0.40286568 -1.1748823 255
0.10359611 -0.41086569 -1.1588823 255
0.10359611 -0.41886568 -1.1588823 255
0.095596112 -0.41086569 -1.1588823 255
0.095596112 -0.41086569 -1.1668823 255
0.095596112 -0.41886568 -1.1668823 255
0.10359611 -0.4268657 -1.1588823 255
0.10359611 -0.4268657 -1.1668823 255
0.10359611 -0.43486568 -1.1668823 255
0.095596112 -0.4268657 -1.1668823 255
0.095596112 -0.43486568 -1.1668823 255
0.087596111 -0.41086569 -1.1668823 255
0.087596111 -0.41886568 -1.1668823 255
0.095596112 -0.43486568 -1.1748823 255
0.07959611 -0.41086569 -1.1748823 255
0.07959611 -0.41886568 -1.1748823 255
0.087596111 -0.4268657 -1.1748823 255
0.087596111 -0.43486568 -1.1748823 255
0.07959611 -0.4268657 -1.1748823 255
0.07959611 -0.43486568 -1.1748823 255
0.07959611 -0.43486568 -1.1828823 255
0.071596116 -0.37886569 -1.1748823 255
0.071596116 -0.38686568 -1.1748823 255
0.063596115 -0.37886569 -1.1748823 255
0.063596115 -0.38686568 -1.1748823 255
0.071596116 -0.39486569 -1.1748823 255
0.071596116 -0.40286568 -1.1748823 255
0.063596115 -0.39486569 -1.1748823 255
0.063596115 -0.39486569 -1.1828823 255
0.063596115 -0.40286568 -1.1748823 255
0.063596115 -0.40286568 -1.1828823 255
0.055596113 -0.37886569 -1.1828823 255
0.055596113 -0.38686568 -1.1828823 255
0.055596113 -0.38686568 -1.1908823 255
0.047596112 -0.37886569 -1.1908823 0
0.047596112 -0.38686568 -1.1908823 0
0.055596113 -0.39486569 -1.1828823 255
0.055596113 -0.40286568 -1.1828823 255
0.047596112 -0.39486569 -1.1828823 255
0.055596113 -0.39486569 -1.1908823 0
0.055596113 -0.40286568 -1.1908823 0
0.047596112 -0.39486569 -1.1908823 0
0.047596112 -0.39486569 -1.1988822 0
0.047596112 -0.40286568 -1.1908823 0
0.047596112 -0.40286568 -1.1988822 0
0.071596116 -0.41086569 -1.1748823 255
0.071596116 -0.41886568 -1.1748823 255
0.071596116 -0.41886568 -1.1828823 255
0.063596115 -0.41086569 -1.1828823 255
0.063596115 -0.41886568 -1.1828823 0
0.071596116 -0.4268657 -1.1748823 255
0.071596116 -0.4268657 -1.1828823 0
0.071596116 -0.43486568 -1.1828823 0
0.063596115 -0.4268657 -1.1908823 0
0.063596115 -0.43486568 -1.1908823 0
0.055596113 -0.41086569 -1.1908823 0
0.055596113 -0.41886568 -1.1908823 0
0.055596113 -0.41886568 -1.1988822 0
0.047596112 -0.41086569 -1.1988822 0
0.047596112 -0.41886568 -1.1988822 0
0.055596113 -0.4268657 -1.1908823 0
0.055596113 -0.4268657 -1.1988822 0
0.055596113 -0.43486568 -1.1908823 0
0.055596113 -0.43486568 -1.1988822 0
0.047596112 -0.4268657 -1.1988822 0
0.055596113 -0.4268657 -1.2068822 0
0.055596113 -0.43486568 -1.2068822 0
0.047596112 -0.4268657 -1.2068822 0
0.047596112 -0.43486568 -1.2068822 0
0.047596112 -0.43486568 -1.2148823 0
0.16759612 -0.4428657 -1.1668823 0
0.15959612 -0.4428657 -1.1668823 255
0.15959612 -0.45086569 -1.1668823 0
0.16759612 -0.4588657 -1.1668823 0
0.16759612 -0.46686569 -1.1668823 0
0.15959612 -0.4588657 -1.1668823 0
0.15959612 -0.46686569 -1.1668823 0
0.15159611 -0.4428657 -1.1588823 255
0.15159611 -0.4428657 -1.1668823 255
0.15159611 -0.45086569 -1.1668823 255
0.14359611 -0.4428657 -1.1588823 255
0.14359611 -0.45086569 -1.1588823 255
0.15159611 -0.4588657 -1.1668823 255
0.15159611 -0.46686569 -1.1668823 255
0.14359611 -0.4588657 -1.1588823 255
0.14359611 -0.4588657 -1.1668823 255
0.14359611 -0.46686569 -1.1668823 255
0.16759612 -0.45086569 -1.1748823 0
0.16759612 -0.4588657 -1.1748823 0
0.16759612 -0.46686569 -1.1748823 0
0.16759612 -0.4748657 -1.1668823 0
0.15959612 -0.4748657 -1.1668823 0
0.15159611 -0.4748657 -1.1668823 255
0.15159611 -0.48286569 -1.1668823 255
0.14359611 -0.4748657 -1.1668823 255
0.14359611 -0.48286569 -1.1668823 255
0.15159611 -0.49086571 -1.1668823 255
0.14359611 -0.49086571 -1.1668823 255
0.16759612 -0.4748657 -1.1748823 0
0.16759612 -0.48286569 -1.1748823 0
0.15959612 -0.48286569 -1.1748823 0
0.16759612 -0.49086571 -1.1748823 0
0.15959612 -0.49086571 -1.1748823 0
0.15159611 -0.49086571 -1.1748823 255
0.14359611 -0.49086571 -1.1748823 255
0.13559611 -0.4428657 -1.1588823 255
0.13559611 -0.45086569 -1.1588823 255
0.12759611 -0.4428657 -1.1588823 255
0.12759611 -0.45086569 -1.1588823 255
0.13559611 -0.4588657 -1.1588823 255
0.13559611 -0.46686569 -1.1668823 255
0.12759611 -0.4588657 -1.1588823 255
0.12759611 -0.46686569 -1.1588823 255
0.11959612 -0.4428657 -1.1588823 255
0.11959612 -0.4428657 -1.1668823 255
0.11959612 -0.45086569 -1.1588823 255
0.11959612 -0.45086569 -1.1668823 255
0.11159611 -0.4428657 -1.1668823 255
0.11159611 -0.45086569 -1.1668823 255
0.11959612 -0.4588657 -1.1588823 255
0.11959612 -0.4588657 -1.1668823 255
0.11959612 -0.46686569 -1.1668823 255
0.11159611 -0.4588657 -1.1668823 255
0.11159611 -0.46686569 -1.1668823 255
0.11159611 -0.46686569 -1.1748823 255
0.13559611 -0.4748657 -1.1668823 255
0.13559611 -0.48286569 -1.1668823 255
0.12759611 -0.4748657 -1.1668823 255
0.12759611 -0.48286569 -1.1668823 255
0.12759611 -0.49086571 -1.1668823 255
0.11959612 -0.4748657 -1.1668823 255
0.11959612 -0.48286569 -1.1668823 255
0.11159611 -0.48286569 -1.1668823 255
0.11959612 -0.49086571 -1.1668823 255
0.11159611 -0.49086571 -1.1668823 255
0.13559611 -0.49086571 -1.1748823 255
0.11159611 -0.4748657 -1.1748823 255
0.11159611 -0.48286569 -1.1748823 255
0.11159611 -0.49086571 -1.1748823 255
0.10359611 -0.4428657 -1.1668823 255
0.10359611 -0.45086569 -1.1668823 255
0.10359611 -0.45086569 -1.1748823 255
0.095596112 -0.4428657 -1.1748823 255
0.095596112 -0.45086569 -1.1748823 255
0.10359611 -0.4588657 -1.1748823 255
0.10359611 -0.46686569 -1.1748823 255
0.095596112 -0.4588657 -1.1748823 255
0.095596112 -0.46686569 -1.1748823 255
0.087596111 -0.4428657 -1.1748823 255
0.087596111 -0.45086569 -1.1748823 255
0.07959611 -0.4428657 -1.1748823 255
0.07959611 -0.4428657 -1.1828823 0
0.07959611 -0.45086569 -1.1828823 0
0.087596111 -0.4588657 -1.1748823 255
0.087596111 -0.46686569 -1.1828823 255
0.07959611 -0.4588657 -1.1828823 0
0.07959611 -0.46686569 -1.1828823 0
0.07959611 -0.46686569 -1.1908823 0
0.10359611 -0.4748657 -1.1748823 255
0.10359611 -0.48286569 -1.1748823 255
0.095596112 -0.4748657 -1.1748823 255
0.095596112 -0.48286569 -1.1828823 255
0.10359611 -0.49086571 -1.1748823 255
0.095596112 -0.49086571 -1.1748823 255
0.095596112 -0.49086571 -1.1828823 255
0.087596111 -0.4748657 -1.1828823 255
0.087596111 -0.48286569 -1.1828823 255
0.07959611 -0.4748657 -1.1828823 0
0.07959611 -0.4748657 -1.1908823 0
0.07959611 -0.48286569 -1.1908823 0
0.087596111 -0.49086571 -1.1908823 0
0.087596111 -0.49886569 -1.1908823 0
0.07959611 -0.49086571 -1.1908823 0
0.07959611 -0.49086571 -1.1988822 0
0.07959611 -0.49886569 -1.1908823 0
0.07959611 -0.49886569 -1.1988822 0
0.071596116 -0.4428657 -1.1828823 0
0.071596116 -0.45086569 -1.1828823 0
0.071596116 -0.4428657 -1.1908823 0
0.071596116 -0.45086569 -1.1908823 0
0.063596115 -0.4428657 -1.1908823 0
0.063596115 -0.4428657 -1.1988822 0
0.063596115 -0.45086569 -1.1908823 0
0.063596115 -0.45086569 -1.1988822 0
0.071596116 -0.4588657 -1.1828823 0
0.071596116 -0.4588657 -1.1908823 0
0.071596116 -0.46686569 -1.1908823 0
0.063596115 -0.4588657 -1.1988822 0
0.063596115 -0.46686569 -1.1988822 0
0.055596113 -0.4428657 -1.1988822 0
0.055596113 -0.45086569 -1.1988822 0
0.071596116 -0.4748657 -1.1908823 0
0.071596116 -0.4748657 -1.1988822 0
0.071596116 -0.48286569 -1.1988822 0
0.063596115 -0.4748657 -1.1988822 0
0.071596116 -0.49086571 -1.1988822 0
0.055596113 -0.4428657 -1.2068822 0
0.055596113 -0.45086569 -1.2068822 0
0.047596112 -0.4428657 -1.2068822 0
0.047596112 -0.4428657 -1.2148823 0
0.047596112 -0.45086569 -1.2148823 0
0.047596112 -0.45086569 -1.2228823 0
0.055596113 -0.4588657 -1.2068822 0
0.055596113 -0.4588657 -1.2148823 0
0.055596113 -0.46686569 -1.2068822 0
0.055596113 -0.46686569 -1.2148823 0
0.047596112 -0.4588657 -1.2228823 0
0.047596112 -0.4588657 -1.2308823 0
0.047596112 -0.46686569 -1.2228823 0
0.047596112 -0.46686569 -1.2308823 0
0.047596112 -0.46686569 -1.2388823 0
0.047596112 -0.46686569 -1.2468823 0
0.063596115 -0.4748657 -1.2068822 0
0.063596115 -0.48286569 -1.2068822 0
0.063596115 -0.48286569 -1.2148823 0
0.071596116 -0.49086571 -1.2068822 0
0.071596116 -0.49886569 -1.2068822 0
0.063596115 -0.49086571 -1.2068822 0
0.063596115 -0.49086571 -1.2148823 0
0.063596115 -0.49886569 -1.2148823 0
0.063596115 -0.49886569 -1.2228823 0
0.055596113 -0.4748657 -1.2068822 0
0.055596113 -0.4748657 -1.2148823 0
0.055596113 -0.48286569 -1.2148823 0
0.055596113 -0.4748657 -1.2228823 0
0.055596113 -0.4748657 -1.2308823 0
0.055596113 -0.48286569 -1.2228823 0
0.055596113 -0.48286569 -1.2308823 0
0.047596112 -0.4748657 -1.2228823 0
0.047596112 -0.4748657 -1.2308823 0
0.055596113 -0.49086571 -1.2228823 0
0.055596113 -0.49086571 -1.2308823 0
0.055596113 -0.49886569 -1.2228823 0
0.055596113 -0.49886569 -1.2308823 0
0.055596113 -0.4748657 -1.2388823 0
0.055596113 -0.48286569 -1.2388823 0
0.047596112 -0.4748657 -1.2388823 0
0.047596112 -0.4748657 -1.2468823 0
0.047596112 -0.4748657 -1.2548823 0
0.055596113 -0.49086571 -1.2388823 0
0.055596113 -0.49886569 -1.2388823 0
0.23959611 -0.49886569 -1.4948823 0
0.24759611 -0.49086571 -1.5188823 0
0.24759611 -0.49886569 -1.5188823 0
0.23959611 -0.49086571 -1.5108823 0
0.23959611 -0.49086571 -1.5188823 0
0.23959611 -0.49886569 -1.5188823 0
0.23959611 -0.48286569 -1.5348823 0
0.24759611 -0.48286569 -1.5508823 0
0.23959611 -0.48286569 -1.5508823 0
0.23959611 -0.49086571 -1.5268823 0
0.23959611 -0.49086571 -1.5348823 0
0.23959611 -0.49086571 -1.5508823 0
0.24759611 -0.4748657 -1.5588822 0
0.24759611 -0.4748657 -1.5668823 0
0.24759611 -0.48286569 -1.5668823 0
0.23959611 -0.4748657 -1.5588822 0
0.23959611 -0.48286569 -1.5668823 0
0.24759611 -0.48286569 -1.5748823 0
0.047596112 -0.4748657 -1.3588823 0
0.047596112 -0.48286569 -1.3588823 0
0.047596112 -0.4748657 -1.3668823 0
0.047596112 -0.48286569 -1.3668823 0
0.25559613 -0.46686569 -1.5908823 0
0.25559613 -0.46686569 -1.5988823 0
0.25559613 -0.4588657 -1.6148823 0
0.25559613 -0.46686569 -1.6148823 0
0.24759611 -0.46686569 -1.5908823 0
0.24759611 -0.46686569 -1.5988823 0
0.25559613 -0.45086569 -1.6308823 0
0.25559613 -0.45086569 -1.6468823 0
0.25559613 -0.46686569 -1.6228822 0
0.25559613 -0.4428657 -1.6548823 0
0.25559613 -0.45086569 -1.6548823 0
0.25559613 -0.4428657 -1.6708823 0
0.039596111 0.38113436 -1.0068823 0
0.031596109 0.38113436 -0.99888229 255
0.031596109 0.38113436 -1.0068823 0
0.031596109 0.37313434 -0.99088228 255
0.031596109 0.36513436 -0.99088228 255
0.039596111 0.37313434 -0.99888229 255
0.039596111 0.37313434 -1.0068823 0
0.039596111 0.36513436 -0.99888229 255
0.031596109 0.37313434 -0.99888229 255
0.02359611 0.38113436 -0.99888229 255
0.02359611 0.38113436 -1.0068823 0
0.01559611 0.38113436 -1.0068823 255
0.02359611 0.37313434 -0.99088228 255
0.02359611 0.36513436 -0.99088228 255
0.01559611 0.36513436 -0.99088228 255
0.02359611 0.37313434 -0.99888229 255
0.01559611 0.37313434 -0.99888229 255
0.01559611 0.37313434 -1.0068823 255
0.01559611 0.36513436 -0.99888229 255
0.039596111 0.35713434 -0.99088228 255
0.039596111 0.34913436 -0.99088228 255
0.031596109 0.35713434 -0.99088228 255
0.031596109 0.34913436 -0.98288226 255
0.039596111 0.35713434 -0.99888229 255
0.039596111 0.35713434 -1.0068823 255
0.039596111 0.34913436 -0.99888229 255
0.039596111 0.34913436 -1.0068823 255
0.039596111 0.34113434 -0.99088228 255
0.031596109 0.34113434 -0.98288226 255
0.031596109 0.34113434 -0.99088228 255
0.031596109 0.33313435 -0.99088228 255
0.039596111 0.34113434 -0.99888229 255
0.039596111 0.33313435 -0.99888229 255
0.02359611 0.35713434 -0.98288226 255
0.02359611 0.35713434 -0.99088228 255
0.02359611 0.34913436 -0.98288226 255
0.01559611 0.35713434 -0.99088228 255
0.01559611 0.34913436 -0.99088228 255
0.01559611 0.34913436 -0.99888229 255
0.02359611 0.34113434 -0.98288226 255
0.02359611 0.34113434 -0.99088228 255
0.02359611 0.33313435 -0.99088228 255
0.01559611 0.34113434 -0.99088228 255
0.01559611 0.34113434 -0.99888229 255
0.01559611 0.33313435 -0.99888229 255
0.0075961095 0.37313434 -1.0068823 255
0.0075961095 0.36513436 -0.99888229 255
0.0075961095 0.36513436 -1.0068823 255
-0.00040389085 0.36513436 -1.0068823 255
0.0075961095 0.35713434 -0.99888229 255
0.0075961095 0.34913436 -0.99888229 255
-0.00040389085 0.35713434 -1.0068823 255
-0.00040389085 0.34913436 -0.99888229 255
-0.00040389085 0.34913436 -1.0068823 255
0.0075961095 0.34113434 -0.99888229 255
0.0075961095 0.33313435 -0.99888229 255
-0.00040389085 0.34113434 -0.99888229 255
-0.00040389085 0.34113434 -1.0068823 255
-0.00040389085 0.33313435 -1.0068823 255
-0.0084038917 0.35713434 -1.0068823 255
-0.0084038917 0.34913436 -1.0068823 255
-0.0084038917 0.34113434 -1.0068823 255
-0.0084038917 0.33313435 -1.0068823 255
0.039596111 0.38113436 -1.0148822 0
0.039596111 0.38113436 -1.0228822 0
0.031596109 0.38113436 -1.0148822 0
0.01559611 0.38113436 -1.0148822 255
0.0075961095 0.38113436 -1.0148822 255
0.0075961095 0.38113436 -1.0228822 255
-0.00040389085 0.38913435 -1.0228822 255
-0.00040389085 0.38113436 -1.0148822 255
-0.00040389085 0.38113436 -1.0228822 255
0.0075961095 0.38113436 -1.0308822 255
-0.00040389085 0.38913435 -1.0308822 255
-0.00040389085 0.38913435 -1.0388823 255
0.0075961095 0.37313434 -1.0148822 255
-0.00040389085 0.37313434 -1.0148822 255
-0.00040389085 0.36513436 -1.0148822 255
-0.0084038917 0.38113436 -1.0228822 0
-0.0084038917 0.38913435 -1.0308822 255
-0.0084038917 0.38913435 -1.0388823 255
-0.0084038917 0.38113436 -1.0308822 255
-0.0084038917 0.37313434 -1.0148822 0
-0.0084038917 0.37313434 -1.0228822 0
-0.0084038917 0.36513436 -1.0148822 0
-0.016403891 0.37313434 -1.0148822 0
-0.016403891 0.37313434 -1.0228822 0
-0.016403891 0.36513436 -1.0148822 0
-0.016403891 0.36513436 -1.0228822 0
-0.0084038917 0.35713434 -1.0148822 255
-0.016403891 0.35713434 -1.0148822 255
-0.016403891 0.34913436 -1.0148822 255
-0.016403891 0.34113434 -1.0148822 255
-0.016403891 0.33313435 -1.0148822 255
-0.024403892 0.37313434 -1.0228822 0
-0.024403892 0.36513436 -1.0228822 0
-0.024403892 0.37313434 -1.0308822 0
-0.032403894 0.36513436 -1.0308822 0
-0.040403891 0.36513436 -1.0388823 0
-0.024403892 0.35713434 -1.0228822 255
-0.024403892 0.34913436 -1.0148822 255
-0.024403892 0.34913436 -1.0228822 0
-0.032403894 0.35713434 -1.0308822 0
-0.032403894 0.34913436 -1.0308822 0
-0.032403894 0.34913436 -1.0388823 0
-0.024403892 0.34113434 -1.0148822 255
-0.024403892 0.34113434 -1.0228822 0
-0.024403892 0.33313435 -1.0228822 0
-0.024403892 0.34113434 -1.0308822 0
-0.024403892 0.33313435 -1.0308822 0
-0.032403894 0.34113434 -1.0308822 0
-0.032403894 0.34113434 -1.0388823 0
-0.032403894 0.33313435 -1.0308822 0
-0.032403894 0.33313435 -1.0388823 0
-0.040403891 0.35713434 -1.0388823 0
-0.040403891 0.34913436 -1.0308822 0
-0.040403891 0.34913436 -1.0388823 0
-0.040403891 0.34113434 -1.0388823 0
-0.040403891 0.33313435 -1.0308822 0
-0.040403891 0.34113434 -1.0468823 0
0.031596109 0.32513434 -0.99088228 255
0.031596109 0.31713435 -0.99088228 255
0.039596111 0.32513434 -0.99888229 255
0.039596111 0.31713435 -0.99888229 255
0.031596109 0.32513434 -0.99888229 255
0.031596109 0.31713435 -0.99888229 255
0.039596111 0.30913433 -0.99888229 255
0.039596111 0.30113435 -1.0068823 255
0.031596109 0.30913433 -0.99888229 255
0.031596109 0.30113435 -0.99888229 255
0.031596109 0.30113435 -1.0068823 255
0.02359611 0.31713435 -0.99088228 255
0.02359611 0.32513434 -0.99888229 255
0.02359611 0.31713435 -0.99888229 255
0.01559611 0.32513434 -0.99888229 255
0.01559611 0.31713435 -0.99888229 255
0.02359611 0.30913433 -0.99888229 255
0.02359611 0.30113435 -0.99888229 255
0.02359611 0.30113435 -1.0068823 255
0.01559611 0.30913433 -0.99888229 255
0.01559611 0.30113435 -0.99888229 255
0.031596109 0.29313433 -1.0068823 0
0.02359611 0.29313433 -1.0068823 0
0.02359611 0.28513435 -1.0068823 0
0.01559611 0.29313433 -1.0068823 0
0.0075961095 0.32513434 -0.99888229 255
0.0075961095 0.31713435 -0.99888229 255
-0.00040389085 0.32513434 -1.0068823 255
-0.00040389085 0.31713435 -1.0068823 255
0.0075961095 0.30913433 -0.99888229 255
0.0075961095 0.30913433 -1.0068823 255
0.0075961095 0.30113435 -1.0068823 0
-0.00040389085 0.30913433 -1.0068823 255
-0.0084038917 0.32513434 -1.0068823 255
-0.0084038917 0.31713435 -1.0068823 255
0.039596111 0.30113435 -1.0148822 0
0.039596111 0.30113435 -1.0708823 0
0.031596109 0.30113435 -1.0708823 0
0.039596111 0.29313433 -1.0148822 0
0.039596111 0.29313433 -1.0228822 0
0.039596111 0.28513435 -1.0148822 0
0.039596111 0.28513435 -1.0228822 0
0.031596109 0.28513435 -1.0148822 0
0.031596109 0.28513435 -1.0228822 0
0.039596111 0.29313433 -1.0308822 0
0.031596109 0.29313433 -1.0308822 0
0.031596109 0.28513435 -1.0308822 0
0.02359611 0.28513435 -1.0148822 0
0.02359611 0.28513435 -1.0228822 0
0.01559611 0.28513435 -1.0148822 0
0.01559611 0.28513435 -1.0228822 0
0.02359611 0.28513435 -1.0308822 0
0.01559611 0.28513435 -1.0308822 0
0.039596111 0.29313433 -1.0708823 0
0.039596111 0.28513435 -1.0708823 0
0.031596109 0.29313433 -1.0628823 0
0.031596109 0.29313433 -1.0708823 0
0.031596109 0.28513435 -1.0708823 0
0.02359611 0.29313433 -1.0628823 0
0.02359611 0.28513435 -1.0628823 0
0.02359611 0.28513435 -1.0708823 0
0.01559611 0.29313433 -1.0708823 0
0.01559611 0.28513435 -1.0628823 0
0.01559611 0.28513435 -1.0708823 0
0.02359611 0.27713433 -1.0708823 0
0.0075961095 0.30113435 -1.0148822 0
-0.00040389085 0.30913433 -1.0148822 255
-0.00040389085 0.30113435 -1.0148822 0
-0.0084038917 0.32513434 -1.0148822 255
-0.0084038917 0.31713435 -1.0148822 255
-0.016403891 0.32513434 -1.0148822 255
-0.016403891 0.32513434 -1.0228822 255
-0.016403891 0.31713435 -1.0228822 0
-0.016403891 0.31713435 -1.0308822 0
-0.0084038917 0.30913433 -1.0148822 255
-0.0084038917 0.30913433 -1.0228822 255
-0.0084038917 0.30113435 -1.0148822 255
-0.0084038917 0.30113435 -1.0228822 0
-0.016403891 0.30913433 -1.0228822 0
-0.0084038917 0.30113435 -1.0308822 0
-0.0084038917 0.30113435 -1.0388823 0
-0.016403891 0.30913433 -1.0308822 0
-0.016403891 0.30913433 -1.0388823 0
-0.016403891 0.30113435 -1.0308822 0
-0.016403891 0.30113435 -1.0388823 0
-0.0084038917 0.30113435 -1.0468823 0
-0.016403891 0.30913433 -1.0468823 0
-0.016403891 0.30113435 -1.0468823 0
0.0075961095 0.29313433 -1.0148822 0
0.0075961095 0.28513435 -1.0148822 0
0.0075961095 0.28513435 -1.0228822 0
-0.00040389085 0.29313433 -1.0148822 0
-0.00040389085 0.28513435 -1.0148822 0
-0.00040389085 0.28513435 -1.0228822 0
0.0075961095 0.29313433 -1.0388823 0
0.0075961095 0.28513435 -1.0308822 0
-0.00040389085 0.29313433 -1.0308822 0
-0.00040389085 0.29313433 -1.0388823 0
-0.00040389085 0.28513435 -1.0308822 0
-0.0084038917 0.29313433 -1.0228822 0
-0.0084038917 0.29313433 -1.0308822 0
-0.0084038917 0.29313433 -1.0388823 0
0.0075961095 0.29313433 -1.0708823 0
0.0075961095 0.28513435 -1.0708823 0
-0.00040389085 0.29313433 -1.0708823 0
-0.00040389085 0.28513435 -1.0708823 0
-0.040403891 0.31713435 -1.0068823 0
-0.032403894 0.32513434 -1.0228822 0
-0.032403894 0.31713435 -1.0148822 0
-0.024403892 0.32513434 -1.0308822 0
-0.024403892 0.32513434 -1.0388823 0
-0.024403892 0.31713435 -1.0308822 0
-0.024403892 0.31713435 -1.0388823 0
-0.032403894 0.32513434 -1.0388823 0
-0.024403892 0.30913433 -1.0308822 0
-0.040403891 0.32513434 -1.0148822 0
-0.040403891 0.32513434 -1.0228822 0
-0.040403891 0.31713435 -1.0148822 0
-0.040403891 0.32513434 -1.0308822 0
-0.024403892 0.31713435 -1.0468823 0
-0.032403894 0.32513434 -1.0468823 0
-0.032403894 0.31713435 -1.0468823 0
0.039596111 0.30113435 -1.0788822 0
0.039596111 0.28513435 -1.0788822 0
0.039596111 0.27713433 -1.0788822 0
0.039596111 0.26913434 -1.0788822 255
0.039596111 0.26913434 -1.0868822 255
0.031596109 0.27713433 -1.0788822 0
0.031596109 0.26913434 -1.0788822 0
0.031596109 0.26913434 -1.0868822 255
0.01559611 0.28513435 -1.0788822 0
0.02359611 0.27713433 -1.0788822 0
0.02359611 0.26913434 -1.0788822 0
0.02359611 0.26913434 -1.0868822 255
0.01559611 0.27713433 -1.0788822 0
0.01559611 0.27713433 -1.0868822 255
0.01559611 0.26913434 -1.0868822 255
-0.00040389085 0.30113435 -1.0788822 0
-0.0084038917 0.31713435 -1.0788822 255
-0.016403891 0.31713435 -1.0868822 0
-0.0084038917 0.30913433 -1.0788822 255
-0.0084038917 0.30113435 -1.0788822 255
-0.016403891 0.30913433 -1.0788822 0
-0.016403891 0.30913433 -1.0868822 0
-0.016403891 0.30113435 -1.0868822 0
0.0075961095 0.28513435 -1.0788822 0
-0.00040389085 0.29313433 -1.0788822 0
-0.00040389085 0.28513435 -1.0788822 0
0.0075961095 0.27713433 -1.0788822 0
0.0075961095 0.27713433 -1.0868822 255
0.0075961095 0.26913434 -1.0868822 255
-0.00040389085 0.27713433 -1.0868822 255
0.0075961095 0.26913434 -1.0948822 255
-0.00040389085 0.26913434 -1.0948822 255
-0.00040389085 0.26913434 -1.1028823 255
-0.0084038917 0.29313433 -1.0788822 255
-0.0084038917 0.29313433 -1.0868822 255
-0.0084038917 0.28513435 -1.0868822 255
-0.016403891 0.29313433 -1.0868822 0
-0.0084038917 0.28513435 -1.0948822 255
-0.016403891 0.29313433 -1.0948822 0
-0.016403891 0.28513435 -1.0948822 0
-0.016403891 0.28513435 -1.1028823 0
-0.0084038917 0.27713433 -1.0868822 255
-0.0084038917 0.27713433 -1.0948822 255
-0.0084038917 0.27713433 -1.1028823 0
-0.0084038917 0.26913434 -1.0948822 255
-0.0084038917 0.26913434 -1.1028823 0
-0.016403891 0.27713433 -1.1028823 0
-0.0084038917 0.26913434 -1.1108823 0
-0.016403891 0.27713433 -1.1108823 0
-0.016403891 0.26913434 -1.1108823 0
0.039596111 0.26113436 -1.0868822 255
0.039596111 0.25313434 -1.0868822 255
0.031596109 0.26113436 -1.0868822 255
0.031596109 0.25313434 -1.0868822 255
0.039596111 0.25313434 -1.0948822 255
0.031596109 0.25313434 -1.0948822 255
0.039596111 0.24513434 -1.1028823 255
0.039596111 0.23713434 -1.1028823 255
0.031596109 0.24513434 -1.1028823 255
0.031596109 0.23713434 -1.1028823 255
0.02359611 0.26113436 -1.0868822 255
0.01559611 0.26113436 -1.0868822 255
0.02359611 0.26113436 -1.0948822 255
0.02359611 0.25313434 -1.0948822 255
0.01559611 0.26113436 -1.0948822 255
0.01559611 0.25313434 -1.0948822 255
0.02359611 0.24513434 -1.1028823 255
0.02359611 0.23713434 -1.1028823 255
0.01559611 0.24513434 -1.1028823 255
0.031596109 0.23713434 -1.1108823 255
0.02359611 0.23713434 -1.1108823 255
0.01559611 0.24513434 -1.1108823 255
0.01559611 0.23713434 -1.1108823 255
0.039596111 0.22913434 -1.1028823 255
0.039596111 0.22113433 -1.1028823 255
0.031596109 0.22113433 -1.1028823 255
0.039596111 0.21313433 -1.0948822 255
0.039596111 0.21313433 -1.1028823 255
0.039596111 0.20513433 -1.0948822 255
0.031596109 0.21313433 -1.1028823 255
0.031596109 0.20513433 -1.0948822 255
0.031596109 0.20513433 -1.1028823 255
0.02359611 0.21313433 -1.1028823 255
0.02359611 0.20513433 -1.1028823 255
0.01559611 0.20513433 -1.1028823 255
0.031596109 0.22913434 -1.1108823 255
0.031596109 0.21313433 -1.1108823 255
0.02359611 0.22913434 -1.1108823 255
0.02359611 0.22113433 -1.1108823 255
0.01559611 0.22913434 -1.1188823 255
0.01559611 0.22113433 -1.1108823 255
0.01559611 0.22113433 -1.1188823 255
0.02359611 0.21313433 -1.1108823 255
0.01559611 0.21313433 -1.1108823 255
0.0075961095 0.26113436 -1.0948822 255
0.0075961095 0.26113436 -1.1028823 255
0.0075961095 0.25313434 -1.1028823 255
-0.00040389085 0.26113436 -1.1028823 255
-0.0084038917 0.26113436 -1.1028823 255
-0.00040389085 0.25313434 -1.1108823 255
0.0075961095 0.24513434 -1.1108823 255
0.0075961095 0.23713434 -1.1108823 255
0.0075961095 0.23713434 -1.1188823 255
-0.00040389085 0.24513434 -1.1108823 255
-0.00040389085 0.24513434 -1.1188823 255
-0.00040389085 0.23713434 -1.1188823 255
-0.0084038917 0.26113436 -1.1108823 255
-0.0084038917 0.25313434 -1.1108823 255
-0.0084038917 0.25313434 -1.1188823 255
-0.016403891 0.26113436 -1.1108823 0
-0.016403891 0.26113436 -1.1188823 0
-0.016403891 0.25313434 -1.1188823 0
-0.016403891 0.26113436 -1.1268823 0
-0.016403891 0.25313434 -1.1268823 255
-0.016403891 0.25313434 -1.1348823 255
-0.0084038917 0.24513434 -1.1188823 255
-0.0084038917 0.24513434 -1.1268823 255
-0.0084038917 0.23713434 -1.1268823 255
-0.016403891 0.24513434 -1.1268823 255
-0.016403891 0.24513434 -1.1348823 255
-0.016403891 0.23713434 -1.1348823 255
0.0075961095 0.22913434 -1.1188823 255
0.0075961095 0.22113433 -1.1108823 255
0.0075961095 0.22113433 -1.1188823 255
-0.00040389085 0.22913434 -1.1188823 255
-0.00040389085 0.22113433 -1.1188823 255
-0.00040389085 0.22113433 -1.1268823 255
0.0075961095 0.21313433 -1.1108823 255
0.0075961095 0.20513433 -1.1108823 255
-0.00040389085 0.21313433 -1.1108823 255
-0.00040389085 0.21313433 -1.1188823 255
-0.00040389085 0.20513433 -1.1108823 255
-0.0084038917 0.22913434 -1.1268823 255
-0.0084038917 0.22913434 -1.1348823 255
-0.0084038917 0.22113433 -1.1268823 255
-0.016403891 0.22913434 -1.1348823 255
-0.016403891 0.22113433 -1.1348823 255
-0.0084038917 0.21313433 -1.1188823 255
-0.0084038917 0.20513433 -1.1108823 255
-0.016403891 0.20513433 -1.1188823 255
-0.0084038917 0.21313433 -1.1268823 255
-0.016403891 0.21313433 -1.1268823 255
-0.024403892 0.31713435 -1.0868822 0
-0.032403894 0.31713435 -1.0868822 0
-0.032403894 0.31713435 -1.0948822 0
-0.024403892 0.30913433 -1.0868822 0
-0.024403892 0.30113435 -1.0868822 0
-0.032403894 0.30913433 -1.0868822 0
-0.024403892 0.30113435 -1.0948822 0
-0.032403894 0.30913433 -1.0948822 0
-0.032403894 0.30913433 -1.1028823 0
-0.032403894 0.30113435 -1.1028823 0
-0.032403894 0.31713435 -1.1108823 0
-0.032403894 0.30113435 -1.1108823 0
-0.024403892 0.29313433 -1.0948822 0
-0.024403892 0.29313433 -1.1028823 0
-0.024403892 0.28513435 -1.1028823 0
-0.032403894 0.29313433 -1.1028823 0
-0.024403892 0.27713433 -1.1028823 0
-0.024403892 0.26913434 -1.0948822 0
-0.024403892 0.29313433 -1.1108823 0
-0.024403892 0.28513435 -1.1108823 0
-0.032403894 0.29313433 -1.1108823 0
-0.024403892 0.27713433 -1.1108823 0
-0.024403892 0.27713433 -1.1188823 0
-0.024403892 0.26913434 -1.1108823 0
-0.024403892 0.26913434 -1.1188823 0
-0.024403892 0.27713433 -1.1268823 0
-0.024403892 0.26913434 -1.1268823 0
-0.024403892 0.26913434 -1.1348823 0
-0.024403892 0.26913434 -1.1588823 255
-0.032403894 0.26913434 -1.1668823 255
-0.032403894 0.26913434 -1.1748823 255
-0.040403891 0.26913434 -1.1748823 255
-0.040403891 0.26913434 -1.1828823 255
-0.048403893 0.26913434 -1.1828823 0
-0.056403894 0.27713433 -1.1988822 0
-0.056403894 0.26913434 -1.1908823 0
-0.056403894 0.26913434 -1.1988822 0
-0.064403892 0.26913434 -1.1988822 0
-0.024403892 0.26113436 -1.1108823 0
-0.024403892 0.26113436 -1.1268823 0
-0.024403892 0.26113436 -1.1348823 0
-0.024403892 0.25313434 -1.1348823 255
-0.024403892 0.22113433 -1.1348823 255
-0.032403894 0.22113433 -1.1348823 255
-0.024403892 0.20513433 -1.1188823 255
-0.024403892 0.21313433 -1.1268823 255
-0.024403892 0.20513433 -1.1268823 255
-0.032403894 0.21313433 -1.1268823 255
-0.032403894 0.21313433 -1.1348823 255
-0.032403894 0.20513433 -1.1268823 255
-0.032403894 0.20513433 -1.1348823 255
-0.040403891 0.21313433 -1.1348823 255
-0.040403891 0.20513433 -1.1348823 255
-0.024403892 0.26113436 -1.1428822 255
-0.024403892 0.26113436 -1.1508822 255
-0.024403892 0.25313434 -1.1428822 255
-0.024403892 0.25313434 -1.1508822 255
-0.024403892 0.26113436 -1.1588823 255
-0.024403892 0.26113436 -1.1668823 255
-0.024403892 0.25313434 -1.1588823 255
-0.032403894 0.26113436 -1.1668823 255
-0.032403894 0.25313434 -1.1588823 255
-0.032403894 0.25313434 -1.1668823 255
-0.024403892 0.24513434 -1.1428822 255
-0.024403892 0.24513434 -1.1508822 255
-0.024403892 0.23713434 -1.1428822 255
-0.024403892 0.23713434 -1.1508822 255
-0.032403894 0.23713434 -1.1508822 255
-0.024403892 0.24513434 -1.1588823 255
-0.032403894 0.24513434 -1.1588823 255
-0.032403894 0.24513434 -1.1668823 255
-0.032403894 0.23713434 -1.1588823 255
-0.040403891 0.24513434 -1.1668823 255
-0.040403891 0.23713434 -1.1668823 255
-0.048403893 0.23713434 -1.1668823 255
-0.032403894 0.26113436 -1.1748823 255
-0.032403894 0.25313434 -1.1748823 255
-0.040403891 0.26113436 -1.1748823 255
-0.040403891 0.26113436 -1.1828823 255
-0.040403891 0.25313434 -1.1748823 255
-0.040403891 0.25313434 -1.1828823 255
-0.048403893 0.26113436 -1.1828823 0
-0.048403893 0.25313434 -1.1748823 255
-0.048403893 0.25313434 -1.1828823 255
-0.040403891 0.24513434 -1.1748823 255
-0.048403893 0.24513434 -1.1748823 255
-0.048403893 0.24513434 -1.1828823 255
-0.048403893 0.23713434 -1.1748823 255
-0.024403892 0.22913434 -1.1428822 255
-0.024403892 0.22913434 -1.1508822 255
-0.024403892 0.22113433 -1.1428822 255
-0.032403894 0.22913434 -1.1508822 255
-0.032403894 0.22113433 -1.1428822 255
-0.032403894 0.22913434 -1.1588823 255
-0.040403891 0.22913434 -1.1508822 255
-0.040403891 0.22113433 -1.1428822 255
-0.040403891 0.22113433 -1.1508822 255
-0.048403893 0.22913434 -1.1508822 255
-0.048403893 0.22113433 -1.1508822 255
-0.040403891 0.22913434 -1.1588823 255
-0.048403893 0.22913434 -1.1588823 255
-0.040403891 0.21313433 -1.1428822 255
-0.040403891 0.20513433 -1.1428822 255
-0.048403893 0.21313433 -1.1428822 255
-0.048403893 0.21313433 -1.1508822 255
-0.048403893 0.20513433 -1.1428822 255
-0.048403893 0.20513433 -1.1508822 255
-0.056403894 0.26113436 -1.1908823 0
-0.056403894 0.25313434 -1.1908823 255
-0.064403892 0.26113436 -1.1908823 0
-0.064403892 0.26113436 -1.1988822 0
-0.064403892 0.25313434 -1.1908823 255
-0.056403894 0.24513434 -1.1828823 255
-0.056403894 0.23713434 -1.1748823 255
-0.064403892 0.24513434 -1.1828823 255
-0.064403892 0.23713434 -1.1748823 255
-0.064403892 0.23713434 -1.1828823 255
-0.064403892 0.24513434 -1.1908823 255
-0.072403893 0.26113436 -1.1988822 255
-0.072403893 0.25313434 -1.1908823 255
-0.072403893 0.25313434 -1.1988822 255
-0.080403894 0.25313434 -1.1988822 255
-0.072403893 0.24513434 -1.1828823 255
-0.072403893 0.23713434 -1.1748823 255
-0.072403893 0.23713434 -1.1828823 255
-0.080403894 0.24513434 -1.1828823 255
-0.080403894 0.23713434 -1.1748823 255
-0.080403894 0.23713434 -1.1828823 255
-0.072403893 0.24513434 -1.1908823 255
-0.080403894 0.24513434 -1.1908823 255
-0.056403894 0.22113433 -1.1508822 255
-0.056403894 0.22913434 -1.1588823 255
-0.056403894 0.22913434 -1.1668823 255
-0.056403894 0.22113433 -1.1588823 255
-0.064403892 0.22913434 -1.1668823 255
-0.064403892 0.22113433 -1.1668823 255
-0.056403894 0.21313433 -1.1508822 255
-0.056403894 0.21313433 -1.1588823 0
-0.056403894 0.20513433 -1.1588823 0
-0.064403892 0.21313433 -1.1588823 0
-0.064403892 0.21313433 -1.1668823 0
-0.064403892 0.20513433 -1.1588823 0
-0.064403892 0.20513433 -1.1668823 0
-0.072403893 0.22113433 -1.1668823 255
-0.080403894 0.22113433 -1.1668823 255
-0.072403893 0.21313433 -1.1668823 0
-0.072403893 0.20513433 -1.1668823 0
-0.080403894 0.21313433 -1.1668823 0
-0.080403894 0.20513433 -1.1668823 0
-0.064403892 0.22913434 -1.1748823 255
-0.072403893 0.22913434 -1.1748823 255
-0.080403894 0.22913434 -1.1748823 255
-0.064403892 0.27713433 -1.2148823 0
-0.064403892 0.26913434 -1.2068822 0
-0.064403892 0.26913434 -1.2148823 0
-0.064403892 0.26913434 -1.2228823 0
-0.072403893 0.26913434 -1.2068822 0
-0.072403893 0.26913434 -1.2148823 0
-0.072403893 0.26913434 -1.2228823 0
-0.072403893 0.26913434 -1.2308823 0
-0.080403894 0.26913434 -1.2228823 255
-0.072403893 0.27713433 -1.2388823 0
-0.072403893 0.26913434 -1.2388823 0
-0.080403894 0.26913434 -1.2388823 0
-0.072403893 0.26113436 -1.2068822 255
-0.080403894 0.26113436 -1.2068822 255
-0.080403894 0.26113436 -1.2148823 255
-0.088403895 0.25313434 -1.1908823 255
-0.088403895 0.25313434 -1.1988822 255
-0.096403897 0.25313434 -1.1908823 255
-0.096403897 0.25313434 -1.1988822 255
-0.088403895 0.24513434 -1.1828823 255
-0.088403895 0.23713434 -1.1828823 255
-0.096403897 0.24513434 -1.1828823 255
-0.096403897 0.23713434 -1.1828823 255
-0.088403895 0.24513434 -1.1908823 255
-0.1044039 0.25313434 -1.1988822 255
-0.1124039 0.25313434 -1.1988822 255
-0.1044039 0.24513434 -1.1828823 255
-0.1044039 0.23713434 -1.1828823 255
-0.1124039 0.23713434 -1.1828823 255
-0.1044039 0.24513434 -1.1908823 255
-0.1124039 0.24513434 -1.1908823 255
-0.088403895 0.22113433 -1.1668823 255
-0.096403897 0.22113433 -1.1668823 255
-0.088403895 0.21313433 -1.1668823 0
-0.088403895 0.20513433 -1.1668823 0
-0.096403897 0.21313433 -1.1668823 0
-0.096403897 0.20513433 -1.1668823 0
-0.1044039 0.22113433 -1.1668823 255
-0.1124039 0.22113433 -1.1668823 255
-0.1044039 0.21313433 -1.1668823 0
-0.1044039 0.20513433 -1.1668823 0
-0.1124039 0.21313433 -1.1668823 0
-0.1124039 0.20513433 -1.1668823 0
-0.088403895 0.22913434 -1.1748823 255
-0.096403897 0.22913434 -1.1748823 255
-0.096403897 0.22913434 -1.1828823 255
-0.1044039 0.22913434 -1.1748823 255
-0.1044039 0.22113433 -1.1748823 255
-0.1124039 0.22913434 -1.1748823 255
-0.1124039 0.22913434 -1.1828823 255
-0.1124039 0.22113433 -1.1748823 255
-0.12040389 0.23713434 -1.1828823 255
-0.12040389 0.24513434 -1.1908823 255
-0.12040389 0.24513434 -1.1988822 0
-0.12040389 0.23713434 -1.1908823 255
-0.1284039 0.24513434 -1.1908823 0
-0.1284039 0.24513434 -1.1988822 0
-0.1284039 0.23713434 -1.1908823 0
-0.1364039 0.24513434 -1.1988822 0
-0.1364039 0.23713434 -1.1908823 0
-0.1364039 0.23713434 -1.1988822 0
-0.1444039 0.23713434 -1.1988822 0
-0.12040389 0.22113433 -1.1668823 255
-0.12040389 0.21313433 -1.1668823 0
-0.12040389 0.20513433 -1.1668823 0
-0.12040389 0.22913434 -1.1748823 255
-0.12040389 0.22913434 -1.1828823 255
-0.12040389 0.22113433 -1.1748823 255
-0.1284039 0.22913434 -1.1828823 255
-0.1284039 0.22113433 -1.1748823 255
-0.1284039 0.22113433 -1.1828823 255
-0.1284039 0.22913434 -1.1908823 0
-0.12040389 0.21313433 -1.1748823 0
-0.12040389 0.20513433 -1.1748823 0
-0.1284039 0.21313433 -1.1748823 0
-0.1284039 0.20513433 -1.1748823 0
-0.1364039 0.22113433 -1.1828823 255
-0.1364039 0.22913434 -1.1908823 0
-0.1364039 0.22113433 -1.1908823 255
-0.1444039 0.22913434 -1.1908823 0
-0.1444039 0.22913434 -1.1988822 0
-0.1444039 0.22113433 -1.1908823 0
-0.1364039 0.21313433 -1.1828823 0
-0.1364039 0.20513433 -1.1748823 0
-0.1364039 0.20513433 -1.1828823 0
-0.1444039 0.21313433 -1.1828823 0
-0.1444039 0.21313433 -1.1908823 0
-0.1444039 0.20513433 -1.1908823 0
-0.15240389 0.22113433 -1.1828823 0
-0.16040389 0.22113433 -1.1828823 0
-0.15240389 0.22113433 -1.1908823 0
-0.16040389 0.22113433 -1.1908823 0
-0.16040389 0.22113433 -1.1988822 0
-0.15240389 0.21313433 -1.1908823 0
-0.15240389 0.20513433 -1.1908823 255
-0.16040389 0.21313433 -1.1908823 0
-0.16040389 0.21313433 -1.1988822 255
-0.16040389 0.20513433 -1.1908823 255
-0.16040389 0.20513433 -1.1988822 255
-0.16840389 0.22113433 -1.1988822 255
-0.16840389 0.21313433 -1.1988822 255
-0.16840389 0.20513433 -1.1988822 255
-0.088403895 0.26113436 -1.2068822 255
-0.088403895 0.26113436 -1.2148823 255
-0.088403895 0.25313434 -1.2068822 255
-0.088403895 0.25313434 -1.2148823 255
-0.088403895 0.26113436 -1.2228823 255
-0.1044039 0.25313434 -1.2068822 255
-0.1124039 0.25313434 -1.2068822 255
-0.1124039 0.25313434 -1.2148823 255
-0.12040389 0.25313434 -1.2068822 0
-0.12040389 0.25313434 -1.2148823 0
-0.12040389 0.24513434 -1.2068822 0
-0.1284039 0.24513434 -1.2068822 0
-0.1284039 0.24513434 -1.2148823 0
-0.1364039 0.24513434 -1.2068822 0
-0.15240389 0.23713434 -1.2068822 0
-0.15240389 0.23713434 -1.2148823 0
-0.15240389 0.22913434 -1.2068822 0
-0.16840389 0.22113433 -1.2068822 255
-0.1764039 0.22113433 -1.2068822 0
-0.1764039 0.21313433 -1.2068822 0
-0.1764039 0.20513433 -1.2068822 0
-0.1844039 0.22113433 -1.2228823 0
-0.1844039 0.21313433 -1.2068822 0
-0.1844039 0.21313433 -1.2148823 0
-0.1844039 0.20513433 -1.2068822 0
-0.1924039 0.20513433 -1.2068822 0
-0.1924039 0.20513433 -1.2148823 0
0.039596111 -0.0028656707 -1.0708823 0
0.039596111 0.18913434 -1.0868822 255
0.039596111 0.19713435 -1.0948822 255
0.031596109 0.19713435 -1.0948822 255
0.031596109 0.18913434 -1.0948822 255
0.039596111 0.18113434 -1.0868822 0
0.039596111 0.17313434 -1.0868822 0
0.031596109 0.18113434 -1.0868822 255
0.031596109 0.18113434 -1.0948822 255
0.031596109 0.17313434 -1.0948822 0
0.02359611 0.19713435 -1.0948822 255
0.02359611 0.19713435 -1.1028823 255
0.02359611 0.18913434 -1.0948822 255
0.01559611 0.19713435 -1.1028823 255
0.01559611 0.18913434 -1.1028823 255
0.02359611 0.18113434 -1.0948822 255
0.02359611 0.17313434 -1.0948822 255
0.01559611 0.18113434 -1.0948822 255
0.01559611 0.18113434 -1.1028823 255
0.01559611 0.17313434 -1.0948822 255
0.01559611 0.17313434 -1.1028823 255
0.039596111 0.16513434 -1.0868822 0
0.039596111 0.15713434 -1.0868822 0
0.031596109 0.15713434 -1.0868822 0
0.031596109 0.16513434 -1.0948822 0
0.031596109 0.15713434 -1.0948822 0
0.039596111 0.14913434 -1.0868822 0
0.039596111 0.14113434 -1.0788822 0
0.031596109 0.14913434 -1.0868822 0
0.031596109 0.14113434 -1.0868822 0
0.02359611 0.16513434 -1.0948822 0
0.02359611 0.15713434 -1.0948822 0
0.01559611 0.16513434 -1.0948822 255
0.01559611 0.15713434 -1.0948822 255
0.02359611 0.14913434 -1.0868822 0
0.02359611 0.14113434 -1.0868822 0
0.02359611 0.14913434 -1.0948822 0
0.01559611 0.14913434 -1.0948822 255
0.01559611 0.14113434 -1.0948822 255
0.0075961095 0.19713435 -1.1028823 255
0.0075961095 0.18913434 -1.1028823 255
0.0075961095 0.18113434 -1.1028823 255
0.0075961095 0.17313434 -1.1028823 255
-0.00040389085 0.18113434 -1.1028823 255
-0.00040389085 0.17313434 -1.1028823 255
0.0075961095 0.19713435 -1.1108823 255
0.0075961095 0.18913434 -1.1108823 255
-0.00040389085 0.19713435 -1.1108823 255
-0.00040389085 0.18913434 -1.1108823 255
-0.00040389085 0.18113434 -1.1108823 255
-0.0084038917 0.19713435 -1.1108823 255
-0.0084038917 0.18913434 -1.1108823 255
-0.016403891 0.19713435 -1.1108823 255
-0.016403891 0.19713435 -1.1188823 255
-0.016403891 0.18913434 -1.1108823 255
-0.016403891 0.18913434 -1.1188823 255
-0.0084038917 0.18113434 -1.1108823 255
-0.0084038917 0.17313434 -1.1108823 255
-0.016403891 0.18113434 -1.1108823 255
-0.016403891 0.17313434 -1.1108823 255
0.0075961095 0.16513434 -1.1028823 255
0.0075961095 0.15713434 -1.1028823 255
-0.00040389085 0.16513434 -1.1028823 255
-0.00040389085 0.15713434 -1.1028823 255
0.0075961095 0.14913434 -1.0948822 255
0.0075961095 0.14913434 -1.1028823 255
0.0075961095 0.14113434 -1.0948822 255
0.0075961095 0.14113434 -1.1028823 255
-0.00040389085 0.14913434 -1.1028823 255
-0.00040389085 0.14113434 -1.0948822 255
-0.00040389085 0.14113434 -1.1028823 255
-0.0084038917 0.15713434 -1.1028823 255
-0.0084038917 0.14913434 -1.1028823 255
-0.0084038917 0.14113434 -1.1028823 255
-0.016403891 0.14113434 -1.1028823 255
-0.0084038917 0.16513434 -1.1108823 255
-0.016403891 0.16513434 -1.1108823 255
-0.016403891 0.15713434 -1.1108823 255
-0.016403891 0.14913434 -1.1108823 255
-0.016403891 0.14113434 -1.1108823 255
0.039596111 0.13313434 -1.0788822 0
0.039596111 0.12513433 -1.0788822 0
0.031596109 0.13313434 -1.0868822 0
0.031596109 0.12513433 -1.0868822 0
0.039596111 0.11713433 -1.0788822 0
0.039596111 0.10913433 -1.0868822 0
0.031596109 0.11713433 -1.0868822 0
0.031596109 0.10913433 -1.0868822 0
0.02359611 0.13313434 -1.0868822 0
0.02359611 0.12513433 -1.0868822 0
0.01559611 0.13313434 -1.0948822 255
0.01559611 0.12513433 -1.0948822 255
0.02359611 0.11713433 -1.0868822 0
0.02359611 0.10913433 -1.0868822 0
0.01559611 0.11713433 -1.0948822 255
0.01559611 0.10913433 -1.0948822 255
0.039596111 0.10113434 -1.0868822 0
0.039596111 0.093134336 -1.0868822 0
0.031596109 0.10113434 -1.0868822 0
0.031596109 0.093134336 -1.0868822 0
0.039596111 0.085134335 -1.0788822 0
0.039596111 0.085134335 -1.0868822 0
0.039596111 0.077134334 -1.0788822 0
0.031596109 0.085134335 -1.0868822 0
0.031596109 0.077134334 -1.0868822 0
0.02359611 0.10113434 -1.0868822 0
0.02359611 0.093134336 -1.0868822 0
0.01559611 0.10113434 -1.0948822 255
0.01559611 0.093134336 -1.0948822 255
0.02359611 0.077134334 -1.0868822 0
0.01559611 0.077134334 -1.0868822 255
0.02359611 0.085134335 -1.0948822 0
0.01559611 0.085134335 -1.0948822 255
0.0075961095 0.13313434 -1.0948822 255
0.0075961095 0.12513433 -1.0948822 255
-0.00040389085 0.13313434 -1.0948822 255
-0.00040389085 0.13313434 -1.1028823 255
-0.00040389085 0.12513433 -1.0948822 255
0.0075961095 0.11713433 -1.0948822 255
0.0075961095 0.10913433 -1.0948822 255
-0.00040389085 0.11713433 -1.0948822 255
-0.00040389085 0.10913433 -1.0948822 255
-0.0084038917 0.13313434 -1.0948822 255
-0.0084038917 0.13313434 -1.1028823 255
-0.0084038917 0.12513433 -1.0948822 255
-0.0084038917 0.12513433 -1.1028823 255
-0.016403891 0.13313434 -1.1028823 255
-0.016403891 0.12513433 -1.1028823 255
-0.0084038917 0.11713433 -1.0948822 255
-0.0084038917 0.11713433 -1.1028823 255
-0.0084038917 0.10913433 -1.0948822 255
-0.016403891 0.11713433 -1.1028823 255
-0.016403891 0.10913433 -1.1028823 255
-0.016403891 0.13313434 -1.1108823 255
0.0075961095 0.10113434 -1.0948822 255
0.0075961095 0.093134336 -1.0948822 255
-0.00040389085 0.10113434 -1.0948822 255
-0.00040389085 0.093134336 -1.0948822 255
0.0075961095 0.077134334 -1.0868822 255
-0.00040389085 0.085134335 -1.0868822 255
-0.00040389085 0.077134334 -1.0868822 255
0.0075961095 0.085134335 -1.0948822 255
-0.00040389085 0.085134335 -1.0948822 255
-0.00040389085 0.077134334 -1.0948822 255
-0.0084038917 0.10113434 -1.0948822 255
-0.0084038917 0.093134336 -1.0948822 255
-0.016403891 0.10113434 -1.0948822 255
-0.016403891 0.093134336 -1.0948822 255
-0.0084038917 0.077134334 -1.0868822 255
-0.016403891 0.077134334 -1.0868822 255
-0.0084038917 0.085134335 -1.0948822 255
-0.016403891 0.085134335 -1.0948822 255
-0.024403892 0.19713435 -1.1188823 255
-0.024403892 0.18913434 -1.1188823 255
-0.032403894 0.18913434 -1.1188823 255
-0.024403892 0.19713435 -1.1268823 255
-0.032403894 0.19713435 -1.1268823 255
-0.032403894 0.19713435 -1.1348823 255
-0.032403894 0.18913434 -1.1268823 255
-0.024403892 0.18113434 -1.1188823 255
-0.024403892 0.17313434 -1.1188823 255
-0.032403894 0.18113434 -1.1268823 255
-0.032403894 0.17313434 -1.1268823 255
-0.040403891 0.19713435 -1.1348823 255
-0.040403891 0.18913434 -1.1348823 255
