# .PCD v0.7 - Point Cloud Data file format
VERSION 0.7
FIELDS x y z intensity
SIZE 4 4 4 4
TYPE F F F F
COUNT 1 1 1 1
WIDTH 1263
HEIGHT 1
VIEWPOINT 0 0 0 1 0 0 0
POINTS 1263
DATA ascii
0.12219021 -0.38647088 -1.1507505 255
0.12879434 -0.38683617 -1.1493065 255
0.13533406 -0.38741198 -1.1477797 255
0.14062184 -0.38677451 -1.1489509 255
0.14713414 -0.38627565 -1.1505225 255
0.15364581 -0.38559529 -1.1507574 255
0.15740244 -0.38411459 -1.1509682 255
0.1054688 -0.37890628 -1.15162 255
0.11176842 -0.37972006 -1.150663 255
0.11707185 -0.38058817 -1.1505706 255
0.12203048 -0.38076776 -1.1503435 255
0.12916961 -0.3802349 -1.1481284 255
0.13671879 -0.38151044 -1.1460871 255
0.14058982 -0.38118544 -1.1472099 255
0.14667512 -0.38064304 -1.1481142 255
0.15364586 -0.38020834 -1.1494391 255
0.1568225 -0.3797743 -1.151176 255
0.10562232 -0.37529996 -1.1508287 255
0.11019257 -0.37528047 -1.1496327 255
0.1171875 -0.37499997 -1.1489242 255
0.12239585 -0.375 -1.1489462 255
0.12832826 -0.37543714 -1.1480603 255
0.13932291 -0.37630209 -1.146552 255
0.14810954 -0.37528431 -1.149303 255
0.15365906 -0.37485042 -1.1506873 255
0.10604285 -0.36979172 -1.1511971 255
0.11067709 -0.36979166 -1.1492636 255
0.11718751 -0.36979166 -1.1491529 255
0.12239584 -0.36979172 -1.148773 255
0.12640268 -0.36973509 -1.1483179 255
0.1405165 -0.36743996 -1.1477706 255
0.14710815 -0.36927888 -1.1493986 255
0.15274537 -0.37087274 -1.1507806 255
0.10026039 -0.36067706 -1.151783 255
0.1041886 -0.36321464 -1.150846 255
0.11077178 -0.36328122 -1.1492627 255
0.11718749 -0.36320886 -1.1501354 255
0.12202573 -0.36326611 -1.1478826 255
0.12641029 -0.36579061 -1.1482344 255
0.13671878 -0.36209753 -1.1472884 255
0.1406806 -0.36354008 -1.1498832 255
0.14602341 -0.36331677 -1.1506259 255
0.10113616 -0.35638788 -1.1510302 255
0.10473777 -0.35639286 -1.1487639 255
0.11066854 -0.35699207 -1.1480607 255
0.1174189 -0.35661951 -1.1486033 255
0.12239585 -0.35687935 -1.1469126 255
0.13000274 -0.35642815 -1.1465189 255
0.13628913 -0.3566151 -1.1479974 255
0.14108887 -0.35626334 -1.1507682 255
0.14597344 -0.35650694 -1.150913 255
0.099373043 -0.35117131 -1.1507953 255
0.10469055 -0.35215527 -1.1483619 255
0.11027671 -0.35166669 -1.1478899 255
0.11706071 -0.35189715 -1.1480879 255
0.12230902 -0.35286459 -1.1463784 255
0.12890629 -0.35286456 -1.146428 255
0.13704717 -0.3520987 -1.1474786 255
0.14039131 -0.35085535 -1.1488431 255
0.14724401 -0.35132289 -1.1497104 255
0.15395325 -0.35141766 -1.1509041 255
0.15755211 -0.34983349 -1.1511841 255
0.088641837 -0.34244794 -1.1514804 255
0.093478143 -0.34440014 -1.1511346 255
0.099372193 -0.34497377 -1.1508477 255
0.10413148 -0.34519282 -1.1494602 255
0.11081468 -0.34523267 -1.1483419 255
0.11680757 -0.34456757 -1.1470371 255
0.14057292 -0.34651047 -1.1467086 255
0.14734416 -0.34667408 -1.1474771 255
0.15368102 -0.34662315 -1.1477274 255
0.15920296 -0.34523937 -1.1491284 255
0.16338518 -0.34309378 -1.1512185 255
0.08984375 -0.33844152 -1.151746 255
0.093275942 -0.33822617 -1.1505003 255
0.098550156 -0.3382476 -1.1501412 255
0.10416669 -0.33854172 -1.149281 255
0.11137138 -0.33816808 -1.1487249 255
0.11680229 -0.3387517 -1.1476843 255
0.15880252 -0.33865324 -1.1481539 255
0.16393101 -0.33847308 -1.1508902 255
0.093955599 -0.33381304 -1.1513867 255
0.097963445 -0.33337063 -1.1500677 255
0.10416666 -0.33273154 -1.1485574 255
0.11035831 -0.33320662 -1.1480178 255
0.1158854 -0.33463541 -1.146345 255
0.14973961 -0.33203128 -1.1472729 255
0.15429689 -0.33238676 -1.1471821 255
0.15883774 -0.33305088 -1.1491135 255
0.16255599 -0.33505502 -1.1510506 255
0.09526626 -0.32682291 -1.151511 255
0.099101812 -0.32686117 -1.1490813 255
0.1036932 -0.32824335 -1.1466321 255
0.1080729 -0.32942709 -1.1464339 255
0.14973958 -0.32682291 -1.1473066 255
0.15315394 -0.32697174 -1.1484119 255
0.15740706 -0.327099 -1.1508312 255
0.094671838 -0.32036915 -1.1514857 255
0.099089913 -0.32039773 -1.1487236 255
0.14973961 -0.31901041 -1.146801 255
0.1532428 -0.32010058 -1.1493775 255
0.1560178 -0.32161459 -1.150781 255
0.08984375 -0.31380209 -1.15171 255
0.094066918 -0.31438527 -1.1510913 255
0.0992698 -0.31532645 -1.1491754 255
0.14872687 -0.31553823 -1.1464337 255
0.1534774 -0.31513181 -1.1495367 255
0.08984375 -0.31119791 -1.1518689 255
0.094378673 -0.30973023 -1.1510832 255
0.099317171 -0.30989587 -1.148424 255
0.14973961 -0.31119791 -1.146202 255
0.15389934 -0.31005538 -1.1489369 255
0.088586964 -0.30228826 -1.150889 255
0.093690328 -0.30345768 -1.1496098 255
0.099200465 -0.30487326 -1.1478974 255
0.10286461 -0.30598959 -1.1471559 255
0.15399028 -0.30349866 -1.1490139 255
0.081404686 -0.29542613 -1.1511967 255
0.087784268 -0.29677466 -1.1499197 255
0.093480341 -0.29678386 -1.1486242 255
0.14957848 -0.29619047 -1.149348 255
0.15313725 -0.2978895 -1.1499933 255
0.077133872 -0.29132405 -1.1515044 255
0.080547422 -0.29189289 -1.1495726 255
0.08628846 -0.29298523 -1.1475927 255
0.092447907 -0.29296878 -1.146624 255
0.14742906 -0.29194167 -1.1490144 255
0.15205483 -0.29123268 -1.1511421 255
0.076864198 -0.28503993 -1.1508259 255
0.081242003 -0.28521052 -1.1486616 255
0.085668705 -0.28411463 -1.1471341 255
0.14715265 -0.28498843 -1.1491601 255
0.1501475 -0.28776041 -1.150781 255
0.071614593 -0.27734381 -1.151932 255
0.076581441 -0.27864584 -1.1505551 255
0.081456244 -0.27872247 -1.1487513 255
0.085314743 -0.27824953 -1.1466625 255
0.14725843 -0.27851146 -1.1491742 255
0.063802101 -0.27142319 -1.1512424 255
0.069202021 -0.27272731 -1.1510159 255
0.075418659 -0.27316687 -1.1500201 255
0.080484003 -0.27374595 -1.1483139 255
0.14662427 -0.27360326 -1.1493642 255
0.058348905 -0.26521665 -1.1509995 0
0.062207706 -0.26694667 -1.1488632 255
0.069010414 -0.26844826 -1.1478325 255
0.074079424 -0.26959914 -1.1480895 255
0.14756694 -0.26705411 -1.1492487 255
0.033854172 -0.25911456 -1.151693 0
0.038836662 -0.26053593 -1.1507138 0
0.044233628 -0.26099509 -1.1503793 0
0.051195018 -0.26068813 -1.1495299 0
0.057263136 -0.26098284 -1.148443 0
0.06119791 -0.26171878 -1.1461269 0
0.14867832 -0.26051155 -1.1498244 255
0.028593751 -0.25526041 -1.1516289 0
0.033552781 -0.25502679 -1.1508362 0
0.038798686 -0.25515699 -1.1488136 0
0.044564418 -0.25550842 -1.1479543 0
0.05019322 -0.25702778 -1.1475161 0
0.14844146 -0.25524354 -1.1482426 255
0.15104379 -0.25508997 -1.1507809 255
0.015842015 -0.24609376 -1.1514161 0
0.020385915 -0.24769565 -1.1507552 0
0.027296679 -0.24888012 -1.1504934 0
0.033424351 -0.24869427 -1.1484405 0
0.037833948 -0.25046685 -1.1477867 0
0.14929916 -0.24869792 -1.1487814 255
0.15160201 -0.24770534 -1.1507838 255
-0.0013719675 -0.24185814 -1.1509891 0
0.002909116 -0.24103445 -1.1509511 0
0.0091565531 -0.24260521 -1.1505034 0
0.015932713 -0.24255791 -1.1492758 0
0.020798141 -0.24233653 -1.1476071 0
0.026814058 -0.24356984 -1.1475971 0
0.14973961 -0.24448633 -1.1475981 0
0.15213904 -0.24232461 -1.1495353 0
-0.0026285534 -0.23633926 -1.1499196 0
0.002647998 -0.23679067 -1.1493541 0
0.0085286656 -0.2367842 -1.1484144 0
0.014949864 -0.23731726 -1.1476691 0
0.14973959 -0.23828129 -1.146221 0
0.15270582 -0.23662534 -1.1495507 0
-0.0076843323 -0.23023713 -1.1503495 0
-0.0040902197 -0.23262444 -1.1483692 0
0.00390625 -0.23307289 -1.1473199 0
0.010416672 -0.23307292 -1.146904 0
0.01432291 -0.23307291 -1.146418 0
0.15373518 -0.23156026 -1.1495321 0
-0.020920135 -0.22265626 -1.1517853 0
-0.0156604 -0.2239517 -1.1503975 255
-0.010195291 -0.22630213 -1.1484634 0
0.15478294 -0.22610271 -1.1487616 0
0.15714449 -0.22337452 -1.1501297 0
-0.026650731 -0.21789896 -1.150977 0
-0.020871872 -0.21891867 -1.1494305 255
-0.015903613 -0.21966465 -1.1477188 255
0.15886295 -0.21851347 -1.1493764 0
0.16282377 -0.2183239 -1.1509753 0
-0.031851612 -0.21267849 -1.1510123 0
-0.02736748 -0.21345387 -1.1486212 0
-0.022135409 -0.21484378 -1.146788 255
0.16032033 -0.21380955 -1.148085 0
0.16322441 -0.21348961 -1.1499711 0
-0.037872776 -0.20544888 -1.1508861 0
-0.033579189 -0.20720486 -1.1494336 255
-0.02864583 -0.20963542 -1.146751 255
0.16015629 -0.20963541 -1.146324 0
0.16357237 -0.20700176 -1.1492715 0
-0.039057881 -0.19994044 -1.1498308 255
-0.034438767 -0.20097813 -1.1478288 255
0.16409245 -0.20057511 -1.1492435 0
-0.042767014 -0.19367412 -1.1511211 255
-0.039712552 -0.19528435 -1.1488804 255
0.16397735 -0.19533905 -1.1496897 0
-0.048220869 -0.18706636 -1.1510293 255
-0.044605426 -0.18921074 -1.1494651 255
-0.040519293 -0.19059245 -1.1474819 255
0.164519 -0.18891312 -1.1496164 0
-0.049501687 -0.18202092 -1.14983 255
-0.046025142 -0.18433958 -1.1476847 255
0.1655867 -0.18215463 -1.1494474 0
-0.05598959 -0.17578129 -1.151714 255
-0.05039512 -0.17704003 -1.149894 255
-0.047697868 -0.17578128 -1.148177 255
0.16674519 -0.17729676 -1.1485167 0
0.16970323 -0.17626636 -1.1509815 0
-0.055989582 -0.17209202 -1.151672 255
-0.050772641 -0.1717218 -1.1501626 255
-0.047070961 -0.1723547 -1.1475949 255
0.16792582 -0.17108864 -1.1480095 0
0.17043099 -0.17220053 -1.150015 0
-0.05651043 -0.16429049 -1.1512593 255
-0.051335115 -0.16535129 -1.1495528 0
0.16796876 -0.16522752 -1.1473277 255
0.17140116 -0.16503407 -1.1497012 0
-0.062199529 -0.15755211 -1.1516594 255
-0.057905115 -0.15864964 -1.1503441 255
-0.052357122 -0.15934323 -1.1485693 255
0.16682133 -0.1581019 -1.1489764 255
0.17167789 -0.15934637 -1.1493692 0
-0.06640625 -0.15364583 -1.151755 255
-0.062500007 -0.15364584 -1.1515872 255
-0.057128277 -0.15349476 -1.1506566 255
-0.051601458 -0.15368389 -1.148596 255
0.16638224 -0.15361924 -1.1498201 255
-0.062618375 -0.14973961 -1.1518085 255
-0.055274587 -0.14973961 -1.1513088 255
-0.050418019 -0.14726903 -1.1493844 255
0.16556132 -0.14704429 -1.1497335 255
-0.050311174 -0.14078476 -1.1497279 255
0.16015629 -0.13932289 -1.146022 255
0.16417383 -0.14075822 -1.1496857 255
-0.051773395 -0.13552521 -1.1498501 255
0.16069625 -0.13498265 -1.146992 255
0.16449007 -0.13562864 -1.1496004 255
-0.0554289 -0.12760416 -1.1512399 255
-0.051792901 -0.12926212 -1.1493312 255
0.16054875 -0.12966582 -1.1471447 255
0.16379353 -0.12845381 -1.1492358 255
-0.055919766 -0.12268518 -1.1511462 255
-0.051403619 -0.12230235 -1.1488888 255
0.16081409 -0.12234375 -1.1472477 255
0.16289662 -0.12250435 -1.1503907 255
-0.05598959 -0.1184896 -1.15167 255
-0.050514087 -0.11746699 -1.150473 255
-0.046422377 -0.11723957 -1.1474322 255
0.1606227 -0.11652209 -1.1483114 255
0.16272528 -0.11856931 -1.15081 255
-0.048303749 -0.11143298 -1.1510854 255
-0.044674467 -0.1103614 -1.1490724 255
0.15494789 -0.109375 -1.1462361 255
0.15880512 -0.11072604 -1.1491206 255
-0.044611759 -0.10425714 -1.1494379 255
-0.04104558 -0.10286462 -1.1478902 255
0.15495975 -0.10452564 -1.1481659 255
0.15794519 -0.1041146 -1.1503974 255
-0.043682031 -0.099104553 -1.1510648 255
-0.040360093 -0.099065967 -1.1481845 255
0.15784551 -0.099370964 -1.1490556 255
-0.04276691 -0.095052123 -1.1510358 255
-0.039236095 -0.093538813 -1.149034 255
0.15797392 -0.093328334 -1.1499029 255
-0.038491875 -0.087584071 -1.1493322 255
0.15799272 -0.087673649 -1.1490561 0
-0.038090203 -0.080494612 -1.149097 255
0.15859766 -0.080882952 -1.1491401 0
-0.039669264 -0.075653449 -1.1496116 255
0.15927333 -0.075520843 -1.149045 255
-0.042714562 -0.06640625 -1.1511067 255
-0.040402994 -0.069187455 -1.1489583 255
0.15911768 -0.069335967 -1.1490449 255
-0.05078125 -0.063802123 -1.1516171 0
-0.044364724 -0.06266588 -1.1501509 255
-0.041907951 -0.063802123 -1.148177 255
0.1592617 -0.063802123 -1.148177 0
-0.04817709 -0.057880078 -1.1500937 0
-0.044907268 -0.058672518 -1.1485769 255
-0.048192073 -0.050529357 -1.1497883 0
-0.046249054 -0.049641944 -1.1483977 0
-0.048437715 -0.043806769 -1.1491853 0
-0.047739029 -0.04557294 -1.148177 0
-0.049286034 -0.039228126 -1.1492257 0
0.16796879 -0.038081396 -1.1470077 0
0.16929169 -0.03776044 -1.148177 255
-0.049978841 -0.034067772 -1.1493832 0
0.17017286 -0.034639589 -1.1496391 0
-0.050277028 -0.024739619 -1.1485053 0
0.17062423 -0.024780927 -1.14819 0
-0.051162932 -0.020440178 -1.1489987 0
-0.056253612 -0.01562503 -1.149696 0
-0.052448321 -0.015516506 -1.1491519 0
0.17292927 -0.015065844 -1.1491851 0
-0.061197914 -0.0066652945 -1.1492187 0
-0.057146739 -0.0096592065 -1.1490523 0
-0.053399421 -0.011089751 -1.1480523 0
0.17341967 -0.0085243285 -1.1491293 0
0.17467748 -0.006510437 -1.149479 0
0.17648178 -0.0031571921 -1.1493275 255
0.17514572 0.0021467446 -1.1497394 255
0.17433463 0.0086945454 -1.1494367 0
0.1744221 0.01432291 -1.148177 0
0.18262528 0.039992537 -1.1485491 255
0.18227261 0.044270836 -1.1490449 255
0.1835945 0.051225591 -1.1492537 255
0.18327959 0.057235237 -1.1498485 255
0.18417507 0.062038597 -1.1492687 0
0.18476585 0.068917401 -1.1491069 255
0.18483782 0.075148806 -1.149107 0
0.1852638 0.095052063 -1.148177 255
-0.081480682 0.099849202 -1.1474041 0
0.18493341 0.098958336 -1.148177 0
-0.084501743 0.10546879 -1.1509675 0
-0.081750907 0.10424026 -1.1481073 0
0.18509845 0.10416671 -1.148177 0
0.1863696 0.10540012 -1.1506548 255
-0.08452265 0.10987581 -1.151383 0
-0.080707341 0.11071318 -1.1492342 0
-0.077006258 0.11241324 -1.147959 255
0.18528473 0.11132815 -1.1485023 0
0.18639311 0.11088799 -1.1505344 0
-0.08048784 0.11730192 -1.1504098 0
-0.077079959 0.11766721 -1.1472557 255
0.18501881 0.11762153 -1.149169 0
0.18637377 0.11625163 -1.1504966 0
-0.079110399 0.12249602 -1.151141 255
-0.076945238 0.12247904 -1.1480482 255
0.17838539 0.12444231 -1.1499404 0
0.18218789 0.12261561 -1.1493922 255
-0.076642908 0.12905851 -1.1488968 255
-0.075374447 0.13531373 -1.14951 255
-0.071614586 0.13671879 -1.146386 255
0.17860922 0.13511898 -1.1472924 0
0.18098959 0.13671879 -1.1470799 255
-0.074394375 0.14103186 -1.1506271 255
-0.070857577 0.14075889 -1.1476392 0
0.18359379 0.14192709 -1.146547 0
-0.073625505 0.14706688 -1.1511248 0
-0.070138887 0.14708807 -1.1484785 0
-0.072656602 0.15234379 -1.150781 0
-0.070190273 0.15393259 -1.1493005 0
-0.069532186 0.15902615 -1.1495636 0
-0.07421875 0.16276039 -1.151976 0
-0.068369202 0.16497949 -1.1497004 0
-0.06439697 0.16655813 -1.147772 0
-0.067219712 0.17141037 -1.1510917 0
-0.062594563 0.17128803 -1.1492943 0
-0.058858044 0.17241113 -1.1476165 255
-0.061937023 0.17697625 -1.1506176 0
-0.057727788 0.17765464 -1.1485693 255
-0.056247361 0.18242434 -1.150238 255
-0.05338541 0.18359379 -1.146753 255
-0.055629183 0.18722114 -1.1504325 255
-0.0531023 0.18962951 -1.1490705 255
-0.052159071 0.19540884 -1.1493049 255
-0.051717635 0.20049427 -1.1498212 255
-0.051807921 0.20703124 -1.1498282 255
-0.050881129 0.21357509 -1.14934 255
-0.049312744 0.21860866 -1.1499763 255
-0.04571417 0.2201888 -1.1480919 255
-0.04817709 0.22265628 -1.151482 255
-0.044561222 0.22292884 -1.1498561 255
-0.038584892 0.22362699 -1.1494584 255
-0.033228766 0.22518502 -1.1491572 255
-0.028384302 0.2267731 -1.1481946 255
-0.02664569 0.23132698 -1.1497039 255
-0.024959646 0.23671861 -1.1491944 255
-0.024964936 0.24193297 -1.1489111 255
-0.024694903 0.2478613 -1.1501466 255
-0.023513062 0.25 -1.148177 255
-0.023036635 0.25520834 -1.1494792 255
-0.024502419 0.26130256 -1.1492183 255
-0.02344667 0.25911459 -1.150781 255
-0.025690181 0.26432291 -1.149665 255
0.08984375 0.30554709 -1.148177 255
0.094184026 0.30462411 -1.1484665 255
0.09855628 0.30357835 -1.1491247 255
0.10416882 0.30258808 -1.1484754 255
0.1080729 0.30119583 -1.1473423 255
0.13492064 -0.38019755 -1.1455009 255
0.13021091 -0.37371489 -1.1454644 255
0.13551891 -0.37550637 -1.1451428 255
0.14125556 -0.37452659 -1.145503 255
0.14453128 -0.37339506 -1.145689 255
0.12944865 -0.36982679 -1.1451514 255
0.13576388 -0.36913994 -1.1449467 255
0.14010051 -0.37021628 -1.1452974 255
0.14468561 -0.37089342 -1.1454107 255
0.12578879 -0.36067709 -1.145573 255
0.12871408 -0.36315849 -1.1451834 255
0.13482584 -0.36358413 -1.1453122 255
0.12598459 -0.35807291 -1.145573 255
0.12837754 -0.35754099 -1.1455836 255
0.13416816 -0.35794675 -1.1455036 255
0.12254564 -0.35067436 -1.1454517 255
0.12887378 -0.35197785 -1.1453915 255
0.13465521 -0.35141924 -1.1454587 255
0.1198361 -0.34244791 -1.145573 255
0.12207121 -0.3455846 -1.1452796 255
0.12890626 -0.34505212 -1.1447469 255
0.1360407 -0.34537095 -1.1449417 255
0.14062499 -0.34288874 -1.1452655 255
0.14713544 -0.34298664 -1.1451888 255
0.15399356 -0.34273896 -1.1452923 255
0.12173695 -0.33857885 -1.1451361 255
0.12886451 -0.33810541 -1.1433491 255
0.13563646 -0.33851901 -1.1428739 255
0.14057291 -0.33848962 -1.1446217 255
0.14713542 -0.33854166 -1.1448598 255
0.15423292 -0.3384316 -1.1453059 255
0.1175919 -0.33283699 -1.1455832 255
0.1232949 -0.3334389 -1.1441839 255
0.12883395 -0.33333337 -1.1409194 255
0.136039 -0.33312169 -1.1419448 255
0.14018925 -0.33303934 -1.1439053 255
0.14727724 -0.33346742 -1.1451457 255
0.15255611 -0.33436117 -1.1454473 255
0.10460562 -0.32505205 -1.1454998 255
0.1110974 -0.32748789 -1.145177 255
0.11711517 -0.3268953 -1.1448505 255
0.12333363 -0.32677564 -1.1440825 255
0.12895449 -0.32682291 -1.1413261 255
0.13550714 -0.32682291 -1.1428825 255
0.14066219 -0.32674849 -1.1445944 255
0.14638133 -0.32665247 -1.1452779 255
0.10191991 -0.3204985 -1.1455729 255
0.104367 -0.32041267 -1.1447766 255
0.11089329 -0.3199428 -1.143368 255
0.1168935 -0.3198415 -1.1437654 255
0.12262724 -0.3206729 -1.143381 255
0.12867929 -0.32085925 -1.1430743 255
0.13510236 -0.3208614 -1.1444689 255
0.140625 -0.3203125 -1.1448412 255
0.1472709 -0.3205815 -1.1452893 255
0.10487268 -0.3151108 -1.1450924 255
0.11042303 -0.31537816 -1.1414844 255
0.11758753 -0.31481829 -1.1429267 255
0.12271674 -0.31519186 -1.1427919 255
0.1292783 -0.31455705 -1.1437581 255
0.13541667 -0.31510419 -1.1448876 255
0.140625 -0.31510419 -1.1448332 255
0.1458312 -0.31454399 -1.145318 255
0.10397746 -0.30989257 -1.1449447 255
0.11070447 -0.30933711 -1.142651 255
0.11732538 -0.30987918 -1.1429741 255
0.12348376 -0.30993104 -1.141818 255
0.12831894 -0.3097572 -1.1425469 255
0.13495284 -0.30943015 -1.1435304 255
0.14066017 -0.30893695 -1.1439404 255
0.1471774 -0.3098377 -1.1450663 255
0.150048 -0.30859378 -1.145573 255
0.098999448 -0.3008309 -1.1454862 255
0.10479723 -0.30343366 -1.1445123 255
0.11067709 -0.30343276 -1.1412624 255
0.11711517 -0.30338541 -1.1412405 255
0.12239584 -0.30338544 -1.1408833 255
0.12881155 -0.3034327 -1.1411003 255
0.13545187 -0.30345583 -1.1413155 255
0.1408951 -0.30364585 -1.1416664 255
0.1471325 -0.30317795 -1.1442491 255
0.15043205 -0.30198318 -1.1455729 255
0.098463796 -0.2969436 -1.1453428 255
0.1047701 -0.29671496 -1.1434931 255
0.1109799 -0.29671985 -1.1407219 255
0.1171875 -0.29617059 -1.1405849 255
0.12243103 -0.29628366 -1.1405517 255
0.12890626 -0.29687494 -1.140803 255
0.13541667 -0.29687503 -1.1407322 255
0.14158317 -0.2968398 -1.1417289 255
0.14626406 -0.29639816 -1.1450495 255
0.08733061 -0.29049528 -1.1454768 255
0.094046384 -0.2918762 -1.145263 255
0.099330358 -0.29096755 -1.1443511 255
0.10472 -0.29149538 -1.1422775 255
0.10937501 -0.29317546 -1.1403297 255
0.1184896 -0.29296878 -1.140045 255
0.12913428 -0.29209122 -1.1404104 255
0.13512266 -0.29130688 -1.140641 255
0.14144766 -0.29175398 -1.1435965 255
0.088091671 -0.28589839 -1.1454245 255
0.093712792 -0.28523064 -1.1447884 255
0.099072874 -0.28515625 -1.1430531 255
0.10432659 -0.28544429 -1.1404953 255
0.13151039 -0.28776041 -1.1401531 255
0.13621973 -0.28508389 -1.1406183 255
0.14070353 -0.28512093 -1.1440715 255
0.088216946 -0.27913487 -1.1453294 255
0.094353348 -0.27815107 -1.143805 255
0.097862914 -0.27971196 -1.1413194 255
0.13616702 -0.27854565 -1.140606 255
0.14049488 -0.27835795 -1.1442231 255
0.081323288 -0.27134696 -1.1456486 255
0.086801201 -0.27351117 -1.1448064 255
0.093129948 -0.27356023 -1.1424778 255
0.098634467 -0.27305919 -1.1403738 255
0.10268807 -0.27216598 -1.1403755 255
0.13484012 -0.27362415 -1.140579 255
0.14097156 -0.27343747 -1.1438588 255
0.06529358 -0.26432291 -1.145573 255
0.069010422 -0.26475477 -1.1451719 255
0.075555563 -0.26720825 -1.145156 255
0.081145413 -0.2667329 -1.1428193 255
0.087399736 -0.2670092 -1.1410229 255
0.09380661 -0.26927093 -1.1405742 255
0.098814264 -0.26693019 -1.1404854 255
0.10301427 -0.26700151 -1.1404985 255
0.13582487 -0.26829422 -1.1403412 255
0.14071004 -0.26713827 -1.143205 255
0.14477098 -0.2645345 -1.1454014 255
0.062377423 -0.26060817 -1.1452177 0
0.069078945 -0.2603482 -1.1443399 255
0.075092949 -0.26035318 -1.1429663 255
0.080804341 -0.26065484 -1.1416088 255
0.10005297 -0.26159349 -1.1404639 255
0.10271195 -0.26203555 -1.1403062 255
0.14032646 -0.26047087 -1.1419345 255
0.1448396 -0.26041672 -1.1451987 255
0.044924106 -0.25283864 -1.1455729 0
0.050839134 -0.25401047 -1.1448323 0
0.057366766 -0.25552696 -1.1447952 0
0.063648671 -0.25520837 -1.1439252 0
0.069072165 -0.25557458 -1.1428663 255
0.075449668 -0.25514564 -1.1427668 255
0.081335321 -0.25496382 -1.1407378 255
0.14046007 -0.25503334 -1.1417149 255
0.14532559 -0.25461641 -1.1452415 255
0.039535251 -0.24825105 -1.1449229 0
0.044495858 -0.24891186 -1.1431293 0
0.051334988 -0.2485514 -1.141377 0
0.056748781 -0.24951069 -1.1418523 0
0.062717132 -0.24896385 -1.1419816 0
0.068807647 -0.24858686 -1.1415523 255
0.07529024 -0.24977475 -1.1409611 255
0.07947877 -0.25116229 -1.1404638 255
0.14241248 -0.24865147 -1.1414583 255
0.14642505 -0.24877343 -1.1450386 255
0.022135409 -0.2402872 -1.145573 0
0.02775551 -0.2409846 -1.1454272 0
0.033675786 -0.24291116 -1.1452944 0
0.039218742 -0.24253856 -1.1429299 0
0.044162661 -0.24228664 -1.1404381 0
0.049597546 -0.24531513 -1.1403649 0
0.057410035 -0.24569854 -1.1403649 255
0.06119791 -0.2454039 -1.140365 255
0.1420659 -0.24389966 -1.1402541 255
0.14705706 -0.24192967 -1.143275 255
0.01790393 -0.23828129 -1.145573 0
0.020642966 -0.23679791 -1.1441015 0
0.027604165 -0.23686202 -1.1424353 0
0.033973344 -0.23678949 -1.1416651 0
0.038476765 -0.23792537 -1.1416055 0
0.14816025 -0.23680034 -1.1424223 0
-0.0025728841 -0.23056623 -1.1448281 0
0.0021205426 -0.23119488 -1.1446264 0
0.0088938922 -0.23092847 -1.1442678 0
0.016131388 -0.23117559 -1.1438689 0
0.020648064 -0.23134965 -1.1418972 255
0.025659708 -0.2321509 -1.1404463 255
0.14894742 -0.23197466 -1.1420799 0
0.15063262 -0.23151045 -1.1446615 0
-0.0081387945 -0.22385855 -1.1441063 0
-0.00355173 -0.22625843 -1.1419586 0
0.0032086445 -0.22553703 -1.1421885 0
0.0093234442 -0.22519359 -1.1407322 255
0.014639795 -0.22772899 -1.1404827 255
0.14946714 -0.2261017 -1.1406822 0
0.15208568 -0.22506467 -1.1441257 0
-0.013902069 -0.21784361 -1.1449957 255
-0.0095923441 -0.2195279 -1.1416504 255
0.0040149456 -0.21997818 -1.1404096 255
0.007930872 -0.22184442 -1.1403649 255
0.15354034 -0.21902491 -1.1420865 0
0.15685466 -0.21821773 -1.1455729 0
-0.024533946 -0.2118046 -1.1455729 255
-0.02033034 -0.2131007 -1.1443391 255
-0.015472787 -0.2135068 -1.1435645 255
-0.010471738 -0.21491325 -1.1404774 255
0.15470064 -0.21348961 -1.1405486 0
0.15777344 -0.21322268 -1.1439432 0
-0.030357471 -0.20442711 -1.145573 255
-0.026936822 -0.20663957 -1.1442221 255
-0.021499453 -0.20788762 -1.14133 255
-0.015569648 -0.20725828 -1.1407608 255
0.15479682 -0.20703126 -1.1405331 0
0.15906142 -0.20674305 -1.144188 0
-0.031711783 -0.19986629 -1.1450186 255
-0.027493877 -0.2004202 -1.1419259 255
-0.022404887 -0.20109086 -1.1404377 255
0.15510423 -0.202565 -1.1403649 0
0.15908605 -0.20066161 -1.1434549 0
-0.037499446 -0.19464625 -1.1449729 255
-0.033495128 -0.19539978 -1.1426208 255
-0.029782416 -0.19529444 -1.1405362 255
0.1589988 -0.19529046 -1.1430115 0
-0.043120656 -0.18630539 -1.1454391 255
-0.038424402 -0.18902263 -1.143559 255
-0.03438485 -0.18898475 -1.140429 255
0.15910035 -0.1892398 -1.1425012 0
0.16283886 -0.18631999 -1.1454719 0
-0.044299442 -0.18186088 -1.1451212 255
-0.03919062 -0.18232892 -1.1425321 255
-0.03493093 -0.18262969 -1.1404442 255
0.15925233 -0.1822917 -1.142408 0
0.16282755 -0.18234827 -1.1454561 0
-0.04435597 -0.17737573 -1.1443863 255
-0.039272878 -0.17678082 -1.1419488 255
-0.03527566 -0.17850816 -1.1403457 255
0.15957919 -0.17705008 -1.1422089 0
0.16356115 -0.17663774 -1.1452122 0
-0.044049419 -0.17130841 -1.144496 255
-0.039108161 -0.17228414 -1.1413327 255
0.15999706 -0.17161456 -1.1411102 255
0.16434571 -0.172123 -1.1445469 0
-0.048309885 -0.16443355 -1.1453635 0
-0.044910803 -0.1657443 -1.1427683 0
-0.040031992 -0.16536461 -1.1405765 0
0.16030587 -0.16538581 -1.1407467 255
0.16437458 -0.16533531 -1.1442331 255
-0.048728436 -0.15874745 -1.1436013 255
-0.043925036 -0.15859374 -1.1405662 255
-0.040329836 -0.16009121 -1.1404103 0
0.15978898 -0.15837535 -1.1416382 255
0.16372436 -0.15974979 -1.1445884 255
-0.048387896 -0.1533682 -1.1453148 255
-0.044916071 -0.15328135 -1.1416396 255
-0.040864661 -0.15494789 -1.1402634 255
0.1587797 -0.15349427 -1.1420358 255
0.16299309 -0.15358923 -1.1452489 255
-0.044478253 -0.14702491 -1.1437857 255
-0.040526744 -0.14647602 -1.1403601 255
0.15858796 -0.14687501 -1.1425861 255
0.16276741 -0.14841948 -1.145532 255
-0.044297166 -0.14062098 -1.1439524 255
-0.040271409 -0.14073351 -1.1404953 255
0.15848543 -0.14091367 -1.1432692 255
-0.048302516 -0.1351154 -1.1454679 255
-0.044769134 -0.13563901 -1.1431302 255
-0.040268406 -0.13541667 -1.1404979 255
0.15518761 -0.13463305 -1.1403069 255
0.15820459 -0.13515136 -1.1435447 255
-0.048377857 -0.12890625 -1.1452556 255
-0.044955425 -0.12906829 -1.1420754 255
-0.040269118 -0.12890624 -1.1404932 255
0.15480348 -0.12879774 -1.1414353 255
0.15765141 -0.12896682 -1.1449472 255
-0.048398901 -0.12345425 -1.1452446 255
-0.045005079 -0.12214547 -1.1426891 255
-0.040094405 -0.12234378 -1.1405522 255
0.15439583 -0.12245247 -1.1407377 255
0.1575685 -0.12236064 -1.1443362 255
-0.044153869 -0.1174182 -1.1437185 255
-0.038858652 -0.11679312 -1.1406776 255
0.14976375 -0.11705985 -1.1403639 255
0.15377039 -0.11771119 -1.1422085 255
0.15786882 -0.11649427 -1.1452559 255
-0.043468945 -0.11277459 -1.1440682 255
-0.039077785 -0.11080059 -1.1420768 255
-0.03513436 -0.1133386 -1.1403829 255
0.14913785 -0.11081415 -1.14131 255
0.15262206 -0.11095472 -1.14428 255
0.1564275 -0.11328129 -1.145573 255
-0.038973942 -0.10479685 -1.1437029 255
-0.034938604 -0.10406167 -1.1410172 255
0.14884891 -0.10473374 -1.1419822 255
0.15210995 -0.10376256 -1.1449367 255
-0.038007166 -0.098456383 -1.1451685 255
-0.034210876 -0.098922469 -1.1420084 255
0.14937901 -0.098860525 -1.140819 255
0.15355827 -0.09870895 -1.143487 255
0.15758337 -0.097746596 -1.1454904 255
-0.037101772 -0.095052123 -1.145573 255
-0.033651643 -0.093434937 -1.1428874 255
0.15497957 -0.094305515 -1.1403985 255
0.15728462 -0.093454383 -1.1442444 255
-0.033769999 -0.087359376 -1.1434637 255
0.1558371 -0.08984375 -1.140365 255
0.15767774 -0.087002873 -1.1429935 0
-0.033809394 -0.080751292 -1.1429932 255
0.15771373 -0.080729209 -1.1426812 0
-0.037635814 -0.074891083 -1.1455351 255
-0.033771578 -0.075307988 -1.1417772 255
0.15774421 -0.075520858 -1.1426445 0
-0.037634406 -0.069060549 -1.144266 255
-0.034739159 -0.068945333 -1.1407994 255
0.15766738 -0.069047123 -1.1428123 0
-0.039074417 -0.062806897 -1.1429602 255
-0.03515625 -0.065162353 -1.140365 255
0.15766972 -0.063212663 -1.1413904 0
-0.04817709 -0.055914197 -1.145373 0
-0.043492422 -0.056823913 -1.1444744 255
-0.04004968 -0.057423864 -1.1413633 255
0.15896992 -0.05803616 -1.1409467 0
0.16293281 -0.055932522 -1.1414008 0
-0.043909732 -0.051222492 -1.1445311 0
-0.040551111 -0.050670993 -1.1407121 0
0.16406357 -0.051087648 -1.1415904 0
-0.044610839 -0.044754844 -1.1438202 0
-0.041206528 -0.045314979 -1.1403649 0
0.16555591 -0.044531222 -1.1413728 0
-0.048205916 -0.037845097 -1.1455172 0
-0.045109268 -0.039636493 -1.1421744 0
0.16699176 -0.038172472 -1.1425349 0
-0.048368197 -0.03400876 -1.1443399 0
-0.046396151 -0.034372907 -1.1411885 0
0.16897322 -0.033965789 -1.1428943 0
-0.048697613 -0.026749462 -1.1419922 0
-0.04780646 -0.02994794 -1.140365 0
0.17026994 -0.02689168 -1.1427282 0
-0.064222835 -0.021293953 -1.140365 0
-0.050338183 -0.021018056 -1.1431314 0
0.16796879 -0.020312984 -1.1448207 0
0.17076589 -0.021103779 -1.1428572 0
-0.055870965 -0.014506823 -1.1424392 0
-0.050226852 -0.015190193 -1.1431851 0
0.16796879 -0.017575139 -1.145573 0
0.17269368 -0.015168729 -1.1434635 255
-0.057171378 -0.0089512449 -1.1454462 0
-0.050966244 -0.009140728 -1.1431115 0
0.17306557 -0.0097466549 -1.1414312 0
0.17443138 -0.0088778641 -1.1440735 0
-0.056803383 -0.0043569864 -1.1416755 0
-0.052697722 -0.0047444846 -1.1412905 0
0.17343545 -0.0021408459 -1.1403649 0
0.17549112 -0.0027178205 -1.1446126 255
0.17303264 0.0025689651 -1.1417818 0
0.174279 0.0025039958 -1.1455729 0
0.1728607 0.0091145737 -1.141794 0
0.17409863 0.0091145737 -1.1455729 0
0.17317711 0.012857881 -1.140365 0
0.17591521 0.015547634 -1.1424702 0
0.17902942 0.020159373 -1.1424214 255
0.17969556 0.025607623 -1.1447049 0
0.18098463 0.026562661 -1.140691 255
0.18180971 0.034505203 -1.14145 0
0.18172835 0.039407767 -1.1423105 255
0.18137591 0.044582993 -1.1422431 255
0.18234307 0.051080339 -1.1432413 255
0.1815999 0.057292446 -1.1422712 255
0.18243648 0.06212556 -1.1430318 255
0.16796879 0.066918246 -1.140365 0
0.17142923 0.067569569 -1.1422995 0
0.18308879 0.069047101 -1.143347 255
0.18308927 0.075464226 -1.1431652 0
-0.086284682 0.08203125 -1.1404208 0
0.18256143 0.080834478 -1.1430411 255
-0.085937515 0.084895812 -1.1404434 0
-0.081671558 0.086725682 -1.1403425 0
0.18260323 0.086880475 -1.1428232 255
-0.080594845 0.095026396 -1.1404697 0
0.18419905 0.092978984 -1.1425811 0
-0.079836704 0.097837046 -1.1444649 0
-0.076423496 0.099120185 -1.1415139 0
0.18378937 0.099074565 -1.1428025 0
-0.078172363 0.1054688 -1.145573 0
-0.07560084 0.10420844 -1.1425928 255
0.18353693 0.10426098 -1.1428918 0
-0.074814387 0.11047111 -1.1430117 255
0.18353474 0.11069278 -1.1429406 0
-0.074784696 0.11700149 -1.1430303 255
-0.071786918 0.11848962 -1.140185 255
0.1829319 0.11728505 -1.1431667 0
-0.074512132 0.12251072 -1.1431075 255
-0.071701229 0.12441459 -1.1402302 255
0.17845225 0.12461811 -1.1414615 0
0.18122001 0.12248158 -1.1435577 255
-0.074089371 0.12878349 -1.1441457 255
-0.070459738 0.12947485 -1.1406441 255
0.17847908 0.13032268 -1.1415157 255
-0.072236173 0.13411461 -1.145573 255
-0.068843357 0.13505413 -1.1433842 0
-0.063747846 0.13529377 -1.1404337 0
0.1794375 0.13393022 -1.145573 255
0.18261993 0.13548513 -1.142984 255
-0.067034401 0.14067318 -1.1437465 0
-0.06382101 0.14062417 -1.1403414 0
0.18420674 0.14109305 -1.1430548 0
-0.067066289 0.14713541 -1.1447046 0
-0.063766018 0.14709271 -1.1412389 0
0.17838541 0.1488075 -1.140365 255
0.18309118 0.14729168 -1.14114 0
-0.066587836 0.15369794 -1.1453204 0
-0.062591828 0.15346578 -1.1411108 0
0.18207467 0.15094469 -1.1403649 0
-0.066481449 0.15772659 -1.1454364 0
-0.063285254 0.15914717 -1.1428128 0
-0.05855035 0.15860644 -1.1404232 255
-0.062239032 0.16480748 -1.1445867 0
-0.057587896 0.16554694 -1.1418189 255
-0.053383745 0.16796711 -1.1403672 255
-0.056437258 0.17136438 -1.1442449 255
-0.053131405 0.17182681 -1.1405407 255
-0.05570342 0.17650768 -1.1454588 255
-0.051817358 0.1769702 -1.1416087 255
-0.051535826 0.18231744 -1.1431563 255
-0.04997053 0.18885507 -1.143492 255
-0.047127489 0.19010419 -1.1403649 255
-0.048766445 0.19491111 -1.1447815 255
-0.045020826 0.1951344 -1.1410358 255
-0.048226193 0.20015657 -1.1455058 255
-0.044618376 0.20016299 -1.1410367 255
-0.048563629 0.20703131 -1.1448197 255
-0.046060968 0.20703129 -1.1412843 255
-0.048267588 0.21359959 -1.1453018 255
-0.044154093 0.21350005 -1.1416253 255
-0.038962338 0.21559396 -1.1403649 255
-0.043927718 0.21842062 -1.1446739 255
-0.039062496 0.21906477 -1.1439079 255
-0.033858526 0.21932834 -1.1421418 255
-0.028645828 0.22102883 -1.1403649 255
-0.031806413 0.22233328 -1.1455729 255
-0.026521616 0.22422969 -1.14333 255
-0.020723067 0.22641417 -1.1409365 255
-0.02473959 0.22940069 -1.145573 255
-0.021206917 0.23159567 -1.1427683 255
-0.02084136 0.23691292 -1.1428369 255
-0.021460189 0.24190171 -1.1426729 255
-0.022115773 0.24858876 -1.1427982 255
-0.022307595 0.25481194 -1.1427245 255
-0.024483439 0.26183286 -1.1431564 255
-0.023329651 0.25911459 -1.1428319 255
-0.02564357 0.26432291 -1.145573 255
0.11156727 0.29902601 -1.1419519 255
0.11685979 0.29914528 -1.1417534 255
0.1210938 0.29953709 -1.140365 255
0.088241838 0.30516115 -1.1424586 255
0.093463212 0.30357575 -1.1424323 255
0.098319858 0.30226871 -1.1432942 255
0.10446725 0.3011364 -1.1423932 255
0.085503466 0.30666399 -1.1421009 255
0.1116201 -0.29098281 -1.1384554 255
0.11692708 -0.29112574 -1.1379285 255
0.12265209 -0.29119331 -1.138127 255
0.12712447 -0.28990132 -1.1388144 255
0.1054688 -0.28255209 -1.139227 255
0.11064648 -0.28507933 -1.1377069 255
0.1171875 -0.28515625 -1.1367439 255
0.12273788 -0.28443754 -1.1359551 255
0.12862372 -0.28495398 -1.1376404 255
0.13411461 -0.28500304 -1.1396592 255
0.099755526 -0.27796876 -1.1389658 255
0.10405834 -0.27872273 -1.1377221 255
0.11024307 -0.27906239 -1.1365657 255
0.11718751 -0.27864581 -1.1372606 255
0.12268987 -0.27910873 -1.1359575 255
0.12924019 -0.27864587 -1.137437 255
0.13411461 -0.27854574 -1.139778 255
0.1002604 -0.27473959 -1.138641 255
0.10459803 -0.2733933 -1.137738 255
0.11111113 -0.2730096 -1.1364962 255
0.1171875 -0.2734375 -1.1365739 255
0.12274306 -0.27286661 -1.1367662 255
0.12923402 -0.27346411 -1.1375718 255
0.087611593 -0.26432294 -1.1393576 255
0.093312927 -0.26526552 -1.138293 255
0.10589713 -0.26678243 -1.1379793 255
0.11087744 -0.26722857 -1.1376356 255
0.11751301 -0.26634753 -1.1358927 255
0.1229147 -0.26728609 -1.1371999 255
0.12929092 -0.26672328 -1.1364965 255
0.13430645 -0.26572517 -1.1390225 255
0.087996289 -0.26059246 -1.1383203 255
0.09428715 -0.26094636 -1.1371627 255
0.098029122 -0.25991589 -1.1387748 255
0.10427882 -0.26031059 -1.1376648 255
0.11135538 -0.26044822 -1.1357251 255
0.11588539 -0.26349804 -1.135156 255
0.12300346 -0.26256475 -1.1349463 255
0.13048325 -0.26081407 -1.1353116 255
0.1354982 -0.26051179 -1.1376402 255
0.087602429 -0.25466242 -1.1377496 255
0.093497805 -0.25487167 -1.1353968 255
0.098958321 -0.25554234 -1.1362704 255
0.10464 -0.25533578 -1.135102 255
0.10957924 -0.25655201 -1.1351347 255
0.13151039 -0.25651041 -1.134045 255
0.1351871 -0.25523609 -1.1365484 255
0.070194125 -0.24609376 -1.1397521 255
0.075259186 -0.24640736 -1.1374371 255
0.080767408 -0.24855477 -1.1366929 255
0.08666122 -0.25001344 -1.1355954 255
0.13565944 -0.2497237 -1.1355969 255
0.13941976 -0.24817982 -1.1378348 255
0.04557291 -0.24088539 -1.139038 0
0.050596587 -0.24190213 -1.1380249 0
0.057256479 -0.24215141 -1.1379337 255
0.062598139 -0.2424729 -1.1377059 255
0.069355108 -0.24241012 -1.1365315 255
0.074547827 -0.24347079 -1.1351374 255
0.13981579 -0.24196105 -1.1367396 255
0.039673802 -0.23646167 -1.1386061 0
0.044345222 -0.23684832 -1.1365862 0
0.050586779 -0.23736742 -1.1351624 0
0.057291672 -0.23878144 -1.1347625 255
0.062117044 -0.23896949 -1.1350684 255
0.06640625 -0.2399243 -1.135156 255
0.14144221 -0.23754866 -1.1361194 255
0.14453128 -0.23679316 -1.1385156 255
0.028960129 -0.23051171 -1.138477 255
0.033939913 -0.23113704 -1.1381657 255
0.039021678 -0.23181702 -1.1359144 0
0.04296875 -0.23220487 -1.1343052 255
0.1418117 -0.2314616 -1.1352791 255
0.14564951 -0.23149402 -1.1375703 0
-0.0018776049 -0.22266226 -1.1380962 255
0.0013020932 -0.22265629 -1.1380671 255
0.01171875 -0.22265628 -1.13977 255
0.015621349 -0.2246394 -1.1378334 255
0.020490369 -0.22529784 -1.1367531 255
0.026713757 -0.22646134 -1.1359071 255
0.033854164 -0.2265007 -1.1352861 255
0.037063345 -0.22786458 -1.1345809 255
0.14724845 -0.22526954 -1.1362171 0
-0.0066001141 -0.21819843 -1.1381668 255
-0.0030342289 -0.21926427 -1.1372099 255
0.0021533375 -0.21817525 -1.1379406 255
0.0091698626 -0.21825346 -1.1382197 255
0.014928256 -0.21852858 -1.1359587 255
0.01871993 -0.21913299 -1.1349838 255
0.14941531 -0.21905853 -1.1359503 0
0.15071276 -0.21864983 -1.13776 0
-0.0082995798 -0.21302693 -1.1367351 255
-0.0028645874 -0.21372056 -1.1355828 255
0.0030908375 -0.21351092 -1.1357181 255
0.0092200153 -0.21303308 -1.135847 255
0.015854007 -0.21427457 -1.1349732 255
0.14967747 -0.21325991 -1.1352462 0
0.15187983 -0.21348961 -1.1383674 0
-0.01953125 -0.20572919 -1.1384451 255
-0.013403856 -0.20442708 -1.1387666 255
-0.0095548229 -0.20716591 -1.1366822 255
-0.0040030717 -0.20719279 -1.1349957 255
0.00390625 -0.20863383 -1.1343865 255
0.0082959337 -0.2087519 -1.134925 255
0.14973961 -0.20703129 -1.134133 0
0.15195806 -0.206852 -1.136822 0
-0.020269439 -0.19997752 -1.1383786 255
-0.014949407 -0.20036677 -1.1376742 255
-0.0096230116 -0.20106691 -1.1352671 255
0.15374377 -0.20075451 -1.136847 0
-0.026265405 -0.19501738 -1.1380844 255
-0.021009969 -0.19548094 -1.1362926 255
-0.015729034 -0.19591928 -1.1352837 255
0.15477894 -0.19544959 -1.1364839 0
-0.032090183 -0.18828127 -1.1390884 255
-0.027793117 -0.18882617 -1.1367725 255
-0.021522902 -0.19027737 -1.1352582 255
-0.016927091 -0.19140629 -1.1340261 255
0.15469006 -0.18905011 -1.135849 0
0.15661204 -0.18715735 -1.13835 0
-0.031747825 -0.18229169 -1.1388224 255
-0.027389253 -0.18227756 -1.1356083 255
0.15479831 -0.18203129 -1.1360343 255
0.15716435 -0.1827257 -1.1390615 255
-0.032780919 -0.17649314 -1.1383092 255
-0.029202392 -0.17701659 -1.1352708 255
0.15433882 -0.17726931 -1.1362599 255
0.15755211 -0.17708333 -1.1398205 255
-0.03776041 -0.17057291 -1.139863 255
-0.033734102 -0.17194819 -1.1368001 255
-0.02994791 -0.17317709 -1.13442 255
0.15481485 -0.17187501 -1.136536 255
0.15755211 -0.171875 -1.139904 255
-0.037665855 -0.16528955 -1.137889 0
-0.033923592 -0.16551112 -1.1354637 0
0.15491791 -0.16564991 -1.1356775 255
0.15780354 -0.16487151 -1.1376871 255
-0.038446508 -0.15859374 -1.1377556 0
-0.033642448 -0.15865111 -1.1351317 0
0.15490074 -0.15891823 -1.135235 255
0.15725023 -0.15923463 -1.1381984 255
-0.038602065 -0.15326782 -1.1376836 255
-0.034662824 -0.1535266 -1.1350377 0
0.15453768 -0.15343583 -1.1361874 255
0.15669395 -0.15494789 -1.1386859 255
-0.038445719 -0.14749879 -1.1376935 255
-0.034154333 -0.14713542 -1.1352144 255
0.15381517 -0.14720714 -1.1363323 255
-0.038058717 -0.14062499 -1.1373488 255
-0.033597633 -0.14062499 -1.1354656 255
0.15371069 -0.14067924 -1.1363472 255
-0.037995048 -0.13541667 -1.1374661 255
-0.033698391 -0.13534814 -1.135389 255
0.1530055 -0.13578086 -1.1364651 255
-0.037945174 -0.12890625 -1.1375523 255
-0.033573959 -0.12956522 -1.1354761 255
0.14973959 -0.12630209 -1.134676 255
0.15174407 -0.12888618 -1.1369109 255
-0.037893306 -0.12278461 -1.1379565 255
-0.034009948 -0.12234616 -1.1363708 255
-0.027527368 -0.12119114 -1.1350574 255
0.14935654 -0.12243232 -1.136076 255
0.15155178 -0.12250435 -1.1381899 255
-0.03776041 -0.1184896 -1.138537 255
-0.033885103 -0.11715233 -1.137998 255
-0.028627688 -0.11725599 -1.1352391 255
0.14723085 -0.11763239 -1.1361791 255
-0.03300738 -0.11067705 -1.1377687 255
-0.029770521 -0.11086798 -1.1353054 255
0.14373501 -0.1080729 -1.135156 255
0.14587452 -0.11094539 -1.1370212 255
-0.032353811 -0.1042702 -1.1381215 255
-0.029869104 -0.10405818 -1.1353027 255
0.14229156 -0.10421877 -1.1348028 255
0.14527534 -0.10390626 -1.137799 255
-0.031961776 -0.10026038 -1.1391164 255
-0.029423153 -0.098692991 -1.1366745 255
0.14220759 -0.10026038 -1.1350263 255
0.14589739 -0.098652072 -1.1367902 255
-0.030247066 -0.092447937 -1.13776 255
-0.029036101 -0.094134577 -1.1364808 255
0.14878018 -0.0939762 -1.1361195 255
0.15332703 -0.092659965 -1.1380329 255
-0.030817917 -0.087102547 -1.13776 255
-0.029683789 -0.086913787 -1.1354811 255
0.14973961 -0.08984375 -1.1343919 255
0.15433371 -0.088103928 -1.1362174 0
-0.031001957 -0.080729187 -1.1363496 255
-0.02994791 -0.08203125 -1.134043 255
0.15557081 -0.080729187 -1.1364583 0
-0.030817868 -0.075577468 -1.1364017 255
-0.029947909 -0.075520843 -1.1344205 255
0.15542841 -0.075086817 -1.136024 0
0.15630519 -0.076822937 -1.13776 255
-0.031789634 -0.068754904 -1.1371498 255
-0.029947909 -0.07031253 -1.134447 255
0.15528472 -0.069816507 -1.1356905 0
0.1561079 -0.06640625 -1.13776 0
-0.033960849 -0.062633276 -1.1368785 255
0.15651266 -0.062600203 -1.1365583 0
-0.037611455 -0.057183232 -1.1378906 255
-0.034811743 -0.056988403 -1.1356492 255
0.15908079 -0.058091279 -1.1363065 255
0.16263779 -0.05533725 -1.1373 255
-0.038250715 -0.051315114 -1.1360538 255
0.1631837 -0.050451744 -1.1361583 0
-0.039617542 -0.044306051 -1.1373869 0
0.1645781 -0.044248529 -1.1366142 0
-0.042830259 -0.037563004 -1.1379088 0
-0.040114537 -0.039403006 -1.1367 0
0.16541749 -0.039241783 -1.1367084 0
-0.043682184 -0.033109795 -1.1372774 0
-0.040429682 -0.033967324 -1.135101 0
0.16796876 -0.034666121 -1.1354581 0
0.16846824 -0.033854187 -1.1364583 0
-0.048177082 -0.026558571 -1.1370583 0
-0.045351136 -0.027524253 -1.136271 0
0.1695807 -0.026855232 -1.1366738 255
-0.064399451 -0.021647397 -1.136892 0
-0.056908675 -0.018861402 -1.136024 0
-0.049619395 -0.021805808 -1.1373816 0
-0.046535663 -0.020206409 -1.1354067 0
0.17045598 -0.020833343 -1.1364778 255
-0.056001935 -0.015070838 -1.1362772 0
-0.04817709 -0.015625028 -1.139261 0
-0.045791067 -0.015461141 -1.1361307 0
0.17060331 -0.015357578 -1.1361938 0
-0.048177078 -0.0088541862 -1.1391309 0
-0.045975342 -0.0092376871 -1.1358505 0
0.17205362 -0.0087425783 -1.1368009 0
-0.048721839 -0.0034494326 -1.1370844 0
-0.045758229 -0.0044854367 -1.1347457 0
0.17182742 -0.0026584391 -1.1366785 0
0.17071331 0.0022832237 -1.1361665 0
0.17047061 0.0092598936 -1.136184 0
0.17317709 0.013310418 -1.1363578 0
0.17566362 0.015724979 -1.1365302 255
0.17826858 0.020849837 -1.1364287 255
0.17945562 0.027273363 -1.1364228 0
0.18098961 0.02734375 -1.13983 255
0.17967273 0.033420127 -1.136024 255
0.1806604 0.034288187 -1.1388534 255
0.17931645 0.039496511 -1.136024 255
0.18047886 0.03776041 -1.1383713 255
0.17905395 0.044162329 -1.1363497 0
0.179323 0.050697219 -1.1362482 0
0.18072587 0.049913187 -1.1390259 255
0.17908058 0.056944419 -1.1360005 0
0.17937224 0.062020283 -1.1361156 0
0.18080771 0.064090237 -1.1380585 0
0.16796879 0.06640625 -1.1395 0
0.17057292 0.06640625 -1.139778 0
0.1810804 0.069004923 -1.1359519 0
0.18167439 0.075577423 -1.1365148 0
-0.081748582 0.082861692 -1.1359657 0
0.18196993 0.080729134 -1.1364582 0
-0.078868411 0.085537918 -1.1377528 0
-0.076666087 0.088542469 -1.1359552 0
0.18203986 0.087309957 -1.1364229 0
-0.079421848 0.093276493 -1.1387228 0
-0.075759962 0.094389908 -1.1363075 0
0.18380056 0.093486056 -1.135927 0
-0.07377138 0.098449871 -1.137404 255
-0.071801297 0.10026038 -1.1347984 255
0.18259041 0.098486289 -1.1368313 0
-0.072986156 0.10356571 -1.1375887 255
-0.07151819 0.10450356 -1.1351342 255
0.18186635 0.1041146 -1.1364061 0
-0.072356589 0.1080729 -1.13776 255
-0.070922568 0.11130206 -1.1363866 255
0.18135753 0.1112534 -1.1362143 0
-0.069700077 0.11692084 -1.1363188 255
0.17832007 0.11790636 -1.1351559 0
0.18083528 0.11687518 -1.1380483 0
-0.06862697 0.12251984 -1.1365587 255
0.1780951 0.12221834 -1.136214 0
-0.067755818 0.12824155 -1.1377693 255
-0.062646374 0.12913233 -1.1362815 0
-0.059104208 0.13151039 -1.1345919 0
0.17794931 0.12948051 -1.1362658 255
-0.061494622 0.1352983 -1.1373441 0
-0.058380067 0.13541116 -1.1354886 0
0.18217729 0.13537292 -1.1364312 255
-0.061528768 0.14086393 -1.1372246 0
-0.059519693 0.14155303 -1.1351559 0
0.18412326 0.140625 -1.1356579 255
-0.060825653 0.14713541 -1.1391209 0
-0.05867454 0.14713542 -1.1361614 0
0.17768069 0.14888458 -1.136654 0
0.18381748 0.14703526 -1.1359248 255
-0.057352878 0.1534127 -1.1368345 255
-0.052182473 0.15480897 -1.1351031 255
0.17838541 0.15116201 -1.1365583 0
0.18246152 0.15072331 -1.1364017 255
-0.056258827 0.15885416 -1.1374496 255
-0.051848173 0.15911287 -1.1353902 255
-0.05583996 0.16255154 -1.1378639 255
-0.051173378 0.16554102 -1.1364399 255
-0.049272235 0.17137048 -1.1371083 255
-0.04765394 0.17317711 -1.135156 255
-0.048502851 0.17723961 -1.137219 255
-0.04510206 0.17792447 -1.1349515 255
-0.048177082 0.1818112 -1.1383622 255
-0.045446966 0.18200955 -1.1365689 255
-0.040871184 0.18219152 -1.1347513 255
-0.04817709 0.18619789 -1.139905 255
-0.044673212 0.18846208 -1.1377729 255
-0.040117897 0.18940321 -1.1354785 255
-0.038997523 0.19507147 -1.1363674 255
-0.04296875 0.20182291 -1.139744 255
-0.039070554 0.20060055 -1.1364748 255
-0.042968176 0.20752975 -1.1379198 255
-0.038545012 0.20681421 -1.136232 255
-0.039229315 0.21310186 -1.1380296 255
-0.034317065 0.21404457 -1.1360197 255
-0.032083098 0.217415 -1.1370859 255
-0.027253591 0.2199011 -1.1366971 255
-0.020408671 0.22024953 -1.135546 255
-0.016927091 0.22060318 -1.1348146 255
-0.020408152 0.2225574 -1.1381718 255
-0.015305232 0.22523805 -1.1364139 255
-0.015601119 0.23127525 -1.1367377 255
-0.016658258 0.23691738 -1.1369724 255
-0.019184563 0.24328144 -1.1370348 255
-0.016880015 0.24097995 -1.1352628 255
-0.019885164 0.24805634 -1.1366212 255
-0.021719674 0.25571281 -1.136981 255
-0.024501877 0.26187462 -1.1380723 255
-0.022409439 0.25973475 -1.1358649 255
-0.025291804 0.26569012 -1.1355281 255
0.099066824 0.2989265 -1.1365668 255
0.10426969 0.29838556 -1.1361289 255
0.11067706 0.29797766 -1.1365515 255
0.11715029 0.29819667 -1.1364137 255
0.12208194 0.29854888 -1.1356034 255
0.12630209 0.29881591 -1.1369416 255
0.083318047 0.30598959 -1.135156 255
0.087475173 0.30443272 -1.1360288 255
0.093515769 0.30144456 -1.1363212 255
0.099076696 0.30078128 -1.1393743 255
0.1028646 0.30078128 -1.139617 255
0.08203125 0.30718446 -1.1356769 0
0.084635407 0.30719411 -1.13776 255
0.11706066 -0.26065475 -1.1322832 255
0.12201623 -0.25967816 -1.1331412 255
0.12763309 -0.26006991 -1.1327192 255
0.1054688 -0.25206959 -1.132552 255
0.1115808 -0.25446999 -1.1327331 255
0.11659233 -0.25532788 -1.1299968 255
0.12278747 -0.25513428 -1.1307263 255
0.12805362 -0.25529635 -1.1311042 255
0.08203125 -0.24609379 -1.133823 255
0.087692477 -0.24654666 -1.1332626 255
0.093643889 -0.24821642 -1.1324422 255
0.098963812 -0.24864165 -1.1313703 255
0.10435482 -0.24861962 -1.130581 255
0.11112022 -0.24909237 -1.1300112 255
0.11736249 -0.24909271 -1.1297171 255
0.1226078 -0.24924906 -1.1297739 255
0.12910052 -0.24894586 -1.13052 255
0.13423674 -0.24669471 -1.1328971 255
0.075966954 -0.2415508 -1.1329768 255
0.080483221 -0.24233308 -1.1310102 255
0.087309964 -0.24295546 -1.130695 255
0.09365052 -0.24289413 -1.1298116 255
0.099014945 -0.24213091 -1.1292456 255
0.10416668 -0.2421875 -1.1296182 255
0.11110102 -0.24246608 -1.1297685 255
0.11724411 -0.24213091 -1.1296284 255
0.12233923 -0.24224409 -1.1293088 255
0.13063176 -0.24258627 -1.1295625 255
0.13515189 -0.24222295 -1.1316856 255
0.053385414 -0.23532747 -1.1328584 255
0.057343755 -0.23552747 -1.1327223 255
0.063000023 -0.23637201 -1.1329794 255
0.069010429 -0.23675594 -1.1327084 255
0.075236447 -0.23677775 -1.1309218 255
0.080379188 -0.23729347 -1.1297294 255
0.08732938 -0.23729351 -1.129325 255
0.093697928 -0.23682296 -1.1290815 255
0.09765625 -0.23828128 -1.1280169 255
0.1041146 -0.23692711 -1.1292592 255
0.11067709 -0.23697922 -1.1297321 255
0.11718751 -0.23687069 -1.1297992 255
0.1210938 -0.23828128 -1.1280118 255
0.13151039 -0.23828128 -1.1284341 255
0.13622549 -0.23772505 -1.1307256 255
0.13891624 -0.23567708 -1.1329757 255
0.045572918 -0.23108506 -1.1327412 255
0.050431877 -0.23147824 -1.1318024 255
0.057284962 -0.23138264 -1.1299627 255
0.06256406 -0.23181479 -1.131013 255
0.068984531 -0.23133688 -1.1300356 255
0.07514257 -0.23208508 -1.12981 255
0.080837689 -0.23177083 -1.1290127 255
0.084635414 -0.23307289 -1.128706 255
0.095052093 -0.23307289 -1.128263 255
0.10438371 -0.23307292 -1.1288408 255
0.11075599 -0.23196809 -1.1289551 255
0.11734374 -0.23182295 -1.129355 255
0.1210938 -0.23046879 -1.1285561 255
0.13151039 -0.23177086 -1.128613 255
0.13630302 -0.23231556 -1.1295928 255
0.13911834 -0.23144731 -1.1328006 255
0.022135409 -0.22265629 -1.1336519 255
0.026939744 -0.22283168 -1.1323867 255
0.033797551 -0.22300844 -1.1322366 255
0.039411001 -0.22445898 -1.1316421 255
0.0441452 -0.22550908 -1.1309311 255
0.050251037 -0.22635734 -1.1294565 255
0.056908697 -0.22694546 -1.1291858 255
0.062288024 -0.22556946 -1.129496 255
0.068963073 -0.22526044 -1.1294861 255
0.075468734 -0.22640631 -1.1292942 255
