# .PCD v0.7 - Point Cloud Data file format
VERSION 0.7
FIELDS x y z intensity
SIZE 4 4 4 4
TYPE F F F F
COUNT 1 1 1 1
WIDTH 1274
HEIGHT 1
VIEWPOINT 0 0 0 1 0 0 0
POINTS 1274
DATA ascii
-0.10651348 -0.23129876 -1.2085102 22
-0.10842571 -0.23129876 -1.2104224 41
-0.10842571 -0.23321098 -1.2104224 49
-0.10651348 -0.23512322 -1.2085102 36
-0.10842571 -0.23512322 -1.2104224 49
-0.11033794 -0.21982536 -1.2104224 55
-0.11033794 -0.22173759 -1.2085102 76
-0.11225018 -0.22173759 -1.2104224 57
-0.11033794 -0.21982536 -1.2123346 11
-0.11225018 -0.22173759 -1.2123346 57
-0.11225018 -0.22173759 -1.2161591 25
-0.11416241 -0.22173759 -1.2161591 25
-0.11033794 -0.22364981 -1.2104224 79
-0.11033794 -0.22556205 -1.2104224 22
-0.11033794 -0.22556205 -1.2123346 22
-0.11033794 -0.22747429 -1.2123346 4
-0.11033794 -0.22747429 -1.2142469 4
-0.11225018 -0.22556205 -1.2161591 53
-0.11225018 -0.22556205 -1.2180713 53
-0.11225018 -0.22747429 -1.2161591 6
-0.11225018 -0.22747429 -1.2180713 6
-0.11416241 -0.22364981 -1.2180713 78
-0.11416241 -0.22556205 -1.2218957 3
-0.11416241 -0.22938652 -1.2180713 31
-0.11416241 -0.22747429 -1.2199836 6
-0.11033794 -0.23129876 -1.2123346 61
-0.11033794 -0.23129876 -1.2142469 56
-0.11033794 -0.23321098 -1.2123346 65
-0.11033794 -0.23321098 -1.2142469 56
-0.11225018 -0.23321098 -1.2123346 65
-0.11033794 -0.23512322 -1.2123346 65
-0.11033794 -0.23512322 -1.2142469 36
-0.11416241 -0.23321098 -1.2123346 58
-0.11416241 -0.23512322 -1.2085102 27
-0.11416241 -0.23512322 -1.2104224 59
-0.11607464 -0.23703545 -1.2085102 27
-0.11607464 -0.23703545 -1.2104224 27
-0.11225018 -0.23129876 -1.2161591 72
-0.11225018 -0.23321098 -1.2180713 65
-0.11225018 -0.23512322 -1.2161591 43
-0.11225018 -0.23512322 -1.2180713 43
-0.11416241 -0.23129876 -1.2161591 72
-0.11416241 -0.23321098 -1.2180713 65
-0.11607464 -0.23129876 -1.2218957 0
-0.11607464 -0.23321098 -1.2218957 42
-0.11416241 -0.23512322 -1.2161591 43
-0.11416241 -0.23512322 -1.2199836 42
-0.11607464 -0.22747429 -1.2295446 0
-0.11607464 -0.22747429 -1.2333691 0
-0.11607464 -0.22747429 -1.2352813 0
-0.11416241 -0.23129876 -1.2295446 23
-0.11607464 -0.23129876 -1.2276324 23
-0.11607464 -0.23129876 -1.2295446 23
-0.11607464 -0.23703545 -1.2257202 17
-0.11607464 -0.23129876 -1.2314569 23
-0.11416241 -0.23129876 -1.2410181 53
-0.11416241 -0.23321098 -1.2410181 53
-0.11607464 -0.23129876 -1.2410181 53
-0.10651348 -0.23894769 -1.2085102 40
-0.10651348 -0.24085991 -1.2085102 43
-0.10842571 -0.23894769 -1.2104224 48
-0.10842571 -0.24085991 -1.2104224 48
-0.10651348 -0.24277215 -1.2085102 43
-0.10842571 -0.24277215 -1.2085102 27
-0.10842571 -0.24277215 -1.2104224 48
-0.10460124 -0.25042108 -1.2085102 15
-0.10460124 -0.25233331 -1.2085102 14
-0.10842571 -0.24659662 -1.2085102 35
-0.10842571 -0.24659662 -1.2104224 64
-0.10842571 -0.24850886 -1.2085102 52
-0.10842571 -0.24850886 -1.2104224 81
-0.10842571 -0.25042108 -1.2104224 80
-0.10077678 -0.25615779 -1.2085102 1
-0.10077678 -0.25998226 -1.2085102 3
-0.098864548 -0.26189449 -1.2085102 3
-0.098864548 -0.2638067 -1.2085102 2
-0.10077678 -0.26189449 -1.2085102 3
-0.10077678 -0.26189449 -1.2104224 3
-0.10077678 -0.2638067 -1.2085102 2
-0.10077678 -0.2638067 -1.2104224 2
-0.10077678 -0.26763117 -1.2085102 1
-0.10077678 -0.26763117 -1.2104224 2
-0.10268901 -0.25424555 -1.2085102 15
-0.10268901 -0.25615779 -1.2104224 9
-0.10460124 -0.25424555 -1.2085102 14
-0.10460124 -0.25615779 -1.2104224 9
-0.10268901 -0.25807002 -1.2104224 10
-0.10268901 -0.25998226 -1.2104224 11
-0.10460124 -0.25998226 -1.2123346 15
-0.10842571 -0.25424555 -1.2104224 81
-0.10842571 -0.25615779 -1.2123346 81
-0.10842571 -0.25998226 -1.2123346 46
-0.10268901 -0.26189449 -1.2123346 13
-0.10268901 -0.2638067 -1.2123346 12
-0.10460124 -0.26189449 -1.2123346 38
-0.10460124 -0.2638067 -1.2123346 37
-0.10268901 -0.26763117 -1.2123346 12
-0.10460124 -0.26763117 -1.2123346 29
-0.10651348 -0.26189449 -1.2123346 51
-0.10651348 -0.2638067 -1.2123346 47
-0.10842571 -0.26189449 -1.2142469 92
-0.10842571 -0.2638067 -1.2142469 61
-0.10651348 -0.26763117 -1.2123346 52
-0.10842571 -0.26763117 -1.2142469 38
-0.10842571 -0.2638067 -1.2161591 61
-0.10842571 -0.26763117 -1.2161591 46
-0.093127847 -0.29822692 -1.2085102 1
-0.098864548 -0.26954341 -1.2085102 1
-0.098864548 -0.27145565 -1.2085102 0
-0.10077678 -0.26954341 -1.2104224 2
-0.10077678 -0.27145565 -1.2104224 2
-0.098864548 -0.27528012 -1.2085102 2
-0.098864548 -0.27528012 -1.2104224 1
-0.10077678 -0.27528012 -1.2123346 2
-0.096952312 -0.27719235 -1.2085102 2
-0.096952312 -0.27910459 -1.2085102 1
-0.096952312 -0.28292903 -1.2085102 2
-0.096952312 -0.28292903 -1.2104224 2
-0.098864548 -0.27719235 -1.2104224 2
-0.098864548 -0.27910459 -1.2104224 1
-0.10077678 -0.27719235 -1.2123346 2
-0.10077678 -0.27910459 -1.2123346 0
-0.10077678 -0.27910459 -1.2142469 3
-0.098864548 -0.28292903 -1.2104224 2
-0.10077678 -0.28292903 -1.2123346 2
-0.10077678 -0.28292903 -1.2142469 8
-0.10268901 -0.26954341 -1.2123346 12
-0.10268901 -0.27145565 -1.2123346 10
-0.10268901 -0.27145565 -1.2142469 9
-0.10460124 -0.26954341 -1.2123346 29
-0.10460124 -0.27145565 -1.2123346 27
-0.10460124 -0.27145565 -1.2142469 34
-0.10268901 -0.27528012 -1.2142469 12
-0.10460124 -0.27528012 -1.2142469 32
-0.10651348 -0.26954341 -1.2123346 52
-0.10842571 -0.26954341 -1.2142469 38
-0.10651348 -0.27145565 -1.2161591 48
-0.10842571 -0.26954341 -1.2161591 59
-0.10842571 -0.27145565 -1.2161591 59
-0.10651348 -0.27528012 -1.2161591 51
-0.10842571 -0.27528012 -1.2180713 68
-0.10268901 -0.27719235 -1.2161591 19
-0.10268901 -0.27910459 -1.2161591 23
-0.10460124 -0.27719235 -1.2161591 36
-0.10460124 -0.27910459 -1.2161591 36
-0.10268901 -0.28292903 -1.2161591 25
-0.10460124 -0.28101683 -1.2180713 36
-0.10460124 -0.28292903 -1.2180713 22
-0.10460124 -0.28292903 -1.2199836 35
-0.10651348 -0.27910459 -1.2180713 46
-0.10842571 -0.27719235 -1.2180713 68
-0.10842571 -0.27910459 -1.2180713 61
-0.10842571 -0.27910459 -1.2199836 61
-0.10651348 -0.28292903 -1.2218957 26
-0.10842571 -0.28101683 -1.2218957 59
-0.10842571 -0.28292903 -1.2218957 64
-0.095040083 -0.28484127 -1.2085102 2
-0.096952312 -0.28484127 -1.2104224 2
-0.095040083 -0.28866574 -1.2085102 1
-0.095040083 -0.29057798 -1.2085102 2
-0.096952312 -0.28866574 -1.2104224 1
-0.096952312 -0.29057798 -1.2104224 3
-0.096952312 -0.28866574 -1.2123346 1
-0.096952312 -0.29057798 -1.2123346 3
-0.098864548 -0.28484127 -1.2123346 2
-0.10077678 -0.28484127 -1.2142469 8
-0.098864548 -0.28866574 -1.2123346 1
-0.098864548 -0.29057798 -1.2123346 3
-0.10077678 -0.28484127 -1.2161591 8
-0.10077678 -0.28675351 -1.2161591 8
-0.10077678 -0.28866574 -1.2161591 8
-0.10077678 -0.29057798 -1.2161591 7
-0.10077678 -0.29057798 -1.2180713 9
-0.095040083 -0.29249021 -1.2085102 2
-0.095040083 -0.29249021 -1.2104224 3
-0.096952312 -0.29249021 -1.2123346 2
-0.096952312 -0.29249021 -1.2142469 2
-0.095040083 -0.29631469 -1.2085102 1
-0.095040083 -0.29822692 -1.2085102 1
-0.095040083 -0.29822692 -1.2104224 1
-0.096952312 -0.29631469 -1.2104224 1
-0.096952312 -0.29631469 -1.2123346 1
-0.096952312 -0.29631469 -1.2142469 1
-0.096952312 -0.29822692 -1.2123346 1
-0.096952312 -0.29822692 -1.2142469 2
-0.098864548 -0.29249021 -1.2161591 4
-0.10077678 -0.29249021 -1.2161591 4
-0.10077678 -0.29249021 -1.2180713 4
-0.098864548 -0.29631469 -1.2161591 4
-0.098864548 -0.29822692 -1.2161591 4
-0.10077678 -0.29631469 -1.2180713 4
-0.10077678 -0.29822692 -1.2180713 4
-0.10268901 -0.28484127 -1.2180713 29
-0.10268901 -0.28675351 -1.2180713 16
-0.10460124 -0.28484127 -1.2180713 22
-0.10460124 -0.28484127 -1.2218957 13
-0.10268901 -0.28866574 -1.2180713 9
-0.10268901 -0.28866574 -1.2199836 35
-0.10268901 -0.29057798 -1.2199836 69
-0.10460124 -0.28866574 -1.2218957 35
-0.10460124 -0.29057798 -1.2218957 69
-0.10651348 -0.28484127 -1.2218957 26
-0.10842571 -0.28484127 -1.2218957 58
-0.10268901 -0.29249021 -1.2218957 69
-0.10460124 -0.29249021 -1.2218957 69
-0.10268901 -0.29631469 -1.2218957 62
-0.10268901 -0.29822692 -1.2218957 66
-0.10842571 -0.28866574 -1.2238079 26
-0.10842571 -0.29057798 -1.2238079 21
-0.10460124 -0.29631469 -1.2238079 70
-0.10460124 -0.29822692 -1.2238079 74
-0.10842571 -0.29249021 -1.2238079 12
-0.10842571 -0.29440245 -1.2238079 9
-0.10651348 -0.29631469 -1.2238079 27
-0.10842571 -0.29631469 -1.2238079 13
-0.10842571 -0.29822692 -1.2257202 16
-0.11033794 -0.23894769 -1.2123346 50
-0.11033794 -0.23894769 -1.2142469 21
-0.11033794 -0.24085991 -1.2123346 50
-0.11033794 -0.24085991 -1.2142469 21
-0.11033794 -0.24277215 -1.2123346 42
-0.11033794 -0.24277215 -1.2142469 18
-0.11607464 -0.23894769 -1.2142469 35
-0.11225018 -0.23894769 -1.2161591 18
-0.11225018 -0.23894769 -1.2180713 13
-0.11225018 -0.24085991 -1.2161591 30
-0.11225018 -0.24277215 -1.2161591 21
-0.11416241 -0.23894769 -1.2161591 35
-0.11416241 -0.24085991 -1.2180713 35
-0.11607464 -0.24085991 -1.2161591 35
-0.11416241 -0.23894769 -1.2199836 43
-0.11607464 -0.24085991 -1.2218957 43
-0.11416241 -0.24277215 -1.2161591 29
-0.11416241 -0.24277215 -1.2180713 29
-0.11607464 -0.24468438 -1.2161591 36
-0.11607464 -0.24468438 -1.2180713 35
-0.11607464 -0.24277215 -1.2218957 15
-0.11607464 -0.24468438 -1.2218957 15
-0.11033794 -0.24659662 -1.2123346 33
-0.11033794 -0.24850886 -1.2123346 81
-0.11033794 -0.24850886 -1.2142469 18
-0.11225018 -0.24850886 -1.2123346 41
-0.11033794 -0.25042108 -1.2104224 80
-0.11033794 -0.25042108 -1.2123346 80
-0.11416241 -0.24850886 -1.2123346 35
-0.11607464 -0.24659662 -1.2142469 35
-0.11607464 -0.24850886 -1.2142469 35
-0.11416241 -0.25042108 -1.2123346 13
-0.11416241 -0.25042108 -1.2142469 18
-0.11225018 -0.24659662 -1.2161591 15
-0.11416241 -0.24659662 -1.2161591 35
-0.11607464 -0.24659662 -1.2161591 35
-0.11607464 -0.24850886 -1.2161591 35
-0.11416241 -0.25233331 -1.2161591 16
-0.11607464 -0.25042108 -1.2161591 34
-0.11607464 -0.25233331 -1.2161591 14
-0.11607464 -0.25233331 -1.2180713 14
-0.11798687 -0.23894769 -1.2085102 16
-0.11798687 -0.23894769 -1.2104224 16
-0.11798687 -0.24659662 -1.2180713 32
-0.11798687 -0.24850886 -1.2180713 16
-0.11416241 -0.23894769 -1.2257202 35
-0.11607464 -0.24085991 -1.2257202 18
-0.11607464 -0.23894769 -1.2295446 0
-0.11033794 -0.25424555 -1.2123346 81
-0.11033794 -0.25615779 -1.2142469 81
-0.11033794 -0.25615779 -1.2161591 32
-0.11225018 -0.25424555 -1.2161591 32
-0.11225018 -0.25615779 -1.2180713 32
-0.11033794 -0.25998226 -1.2161591 63
-0.11225018 -0.25998226 -1.2180713 34
-0.11416241 -0.25424555 -1.2161591 35
-0.11416241 -0.25424555 -1.2180713 36
-0.11416241 -0.25615779 -1.2180713 36
-0.11416241 -0.25615779 -1.2199836 48
-0.11607464 -0.25424555 -1.2199836 48
-0.11607464 -0.25615779 -1.2218957 48
-0.11416241 -0.25998226 -1.2199836 9
-0.11033794 -0.26189449 -1.2161591 63
-0.11033794 -0.2638067 -1.2180713 32
-0.11225018 -0.26189449 -1.2180713 34
-0.11033794 -0.26763117 -1.2180713 36
-0.11416241 -0.26189449 -1.2199836 12
-0.11416241 -0.26189449 -1.2218957 9
-0.11416241 -0.2638067 -1.2199836 11
-0.11416241 -0.2638067 -1.2218957 9
-0.11416241 -0.26763117 -1.2199836 6
-0.11416241 -0.26763117 -1.2218957 17
-0.11416241 -0.26189449 -1.2238079 33
-0.11416241 -0.2638067 -1.2238079 33
-0.11607464 -0.26189449 -1.2257202 33
-0.11607464 -0.2638067 -1.2257202 33
-0.11416241 -0.26763117 -1.2238079 53
-0.11607464 -0.26763117 -1.2257202 53
-0.11798687 -0.2638067 -1.2314569 12
-0.11798687 -0.2638067 -1.2333691 15
-0.11798687 -0.2638067 -1.2352813 3
-0.11798687 -0.26763117 -1.2314569 20
-0.11798687 -0.26763117 -1.2333691 9
-0.11798687 -0.26571894 -1.2371936 8
-0.11798687 -0.26763117 -1.2371936 8
-0.11033794 -0.26954341 -1.2180713 47
-0.11033794 -0.27145565 -1.2180713 47
-0.11033794 -0.27145565 -1.2199836 6
-0.11225018 -0.27145565 -1.2218957 14
-0.11033794 -0.27528012 -1.2199836 54
-0.11225018 -0.27528012 -1.2218957 14
-0.11416241 -0.26954341 -1.2199836 6
-0.11416241 -0.26954341 -1.2218957 17
-0.11416241 -0.27145565 -1.2218957 13
-0.11416241 -0.27528012 -1.2218957 11
-0.11033794 -0.27719235 -1.2199836 54
-0.11033794 -0.27910459 -1.2199836 51
-0.11033794 -0.27910459 -1.2218957 50
-0.11225018 -0.27719235 -1.2218957 16
-0.11033794 -0.28101683 -1.2218957 51
-0.11033794 -0.28292903 -1.2218957 50
-0.11416241 -0.27145565 -1.2238079 47
-0.11607464 -0.26954341 -1.2257202 53
-0.11607464 -0.27145565 -1.2257202 44
-0.11607464 -0.26954341 -1.2295446 16
-0.11607464 -0.27145565 -1.2295446 16
-0.11416241 -0.27528012 -1.2238079 20
-0.11607464 -0.27528012 -1.2257202 20
-0.11607464 -0.27528012 -1.2295446 37
-0.11225018 -0.27910459 -1.2238079 17
-0.11225018 -0.28292903 -1.2238079 15
-0.11416241 -0.27719235 -1.2238079 20
-0.11416241 -0.27910459 -1.2238079 14
-0.11416241 -0.27910459 -1.2257202 15
-0.11607464 -0.27719235 -1.2257202 21
-0.11607464 -0.27910459 -1.2276324 28
-0.11607464 -0.27910459 -1.2295446 58
-0.11416241 -0.28292903 -1.2238079 2
-0.11416241 -0.28292903 -1.2257202 4
-0.11607464 -0.28292903 -1.2276324 9
-0.11607464 -0.28292903 -1.2295446 9
-0.11798687 -0.26954341 -1.2314569 20
-0.11798687 -0.26954341 -1.2333691 9
-0.11798687 -0.27145565 -1.2314569 20
-0.11798687 -0.26954341 -1.2371936 8
-0.11798687 -0.27528012 -1.2314569 53
-0.11798687 -0.27528012 -1.2333691 53
-0.11798687 -0.27528012 -1.2371936 0
-0.12181135 -0.27528012 -1.2371936 0
-0.11798687 -0.27719235 -1.2295446 58
-0.11798687 -0.27719235 -1.2314569 58
-0.11798687 -0.27719235 -1.2333691 58
-0.11798687 -0.27910459 -1.2314569 58
-0.11989911 -0.27719235 -1.2333691 59
-0.11989911 -0.27910459 -1.2333691 59
-0.11798687 -0.28101683 -1.2333691 55
-0.11798687 -0.28292903 -1.2314569 10
-0.11798687 -0.28292903 -1.2333691 2
-0.11798687 -0.28292903 -1.2352813 25
-0.11989911 -0.28292903 -1.2371936 56
-0.12181135 -0.27719235 -1.2333691 45
-0.12181135 -0.27719235 -1.2371936 29
-0.12181135 -0.27910459 -1.2352813 45
-0.12181135 -0.27910459 -1.2371936 29
-0.12181135 -0.28101683 -1.2371936 31
-0.12181135 -0.28292903 -1.2371936 56
-0.11798687 -0.29822692 -1.2218957 13
-0.12372357 -0.29822692 -1.2218957 0
-0.11033794 -0.28484127 -1.2238079 44
-0.11033794 -0.28675351 -1.2238079 39
-0.11033794 -0.28866574 -1.2238079 26
-0.11033794 -0.29057798 -1.2238079 21
-0.11225018 -0.28866574 -1.2257202 11
-0.11225018 -0.29057798 -1.2257202 6
-0.11416241 -0.28484127 -1.2257202 4
-0.11416241 -0.28675351 -1.2257202 2
-0.11607464 -0.28484127 -1.2295446 9
-0.11416241 -0.28866574 -1.2257202 3
-0.11416241 -0.29057798 -1.2257202 3
-0.11416241 -0.28866574 -1.2295446 2
-0.11416241 -0.29057798 -1.2295446 2
-0.11607464 -0.28866574 -1.2295446 2
-0.11607464 -0.28484127 -1.2314569 9
-0.11607464 -0.28866574 -1.2314569 3
-0.11607464 -0.29057798 -1.2314569 2
-0.11033794 -0.29249021 -1.2238079 12
-0.11033794 -0.29631469 -1.2238079 10
-0.11033794 -0.29822692 -1.2257202 11
-0.11225018 -0.29631469 -1.2257202 4
-0.11225018 -0.29822692 -1.2257202 5
-0.11416241 -0.29249021 -1.2257202 2
-0.11416241 -0.29440245 -1.2257202 1
-0.11607464 -0.29249021 -1.2295446 2
-0.11416241 -0.29631469 -1.2257202 4
-0.11416241 -0.29822692 -1.2257202 19
-0.11416241 -0.29631469 -1.2295446 2
-0.11416241 -0.29822692 -1.2295446 4
-0.11607464 -0.29631469 -1.2295446 2
-0.11607464 -0.29822692 -1.2314569 31
-0.11798687 -0.28484127 -1.2333691 1
-0.11798687 -0.28675351 -1.2333691 2
-0.11798687 -0.28484127 -1.2352813 24
-0.11989911 -0.28484127 -1.2371936 56
-0.11798687 -0.28866574 -1.2333691 3
-0.11798687 -0.29057798 -1.2333691 3
-0.11989911 -0.28866574 -1.2333691 1
-0.11989911 -0.29057798 -1.2333691 2
-0.12181135 -0.28675351 -1.2371936 7
-0.12181135 -0.28866574 -1.2352813 4
-0.12181135 -0.28866574 -1.2371936 4
-0.12181135 -0.29057798 -1.2352813 4
-0.12181135 -0.29057798 -1.2371936 4
-0.11798687 -0.29822692 -1.2238079 36
-0.11798687 -0.29822692 -1.2257202 36
-0.11989911 -0.29822692 -1.2257202 13
-0.11798687 -0.29822692 -1.2295446 44
-0.11989911 -0.29822692 -1.2295446 55
-0.12181135 -0.29822692 -1.2238079 0
-0.12372357 -0.29822692 -1.2257202 0
-0.12181135 -0.29822692 -1.2295446 33
-0.11798687 -0.29249021 -1.2314569 2
-0.11989911 -0.29249021 -1.2333691 2
-0.11798687 -0.29631469 -1.2314569 44
-0.11798687 -0.29822692 -1.2314569 44
-0.11798687 -0.29822692 -1.2333691 24
-0.11989911 -0.29631469 -1.2314569 55
-0.11989911 -0.29822692 -1.2314569 55
-0.12181135 -0.29440245 -1.2333691 55
-0.12181135 -0.29249021 -1.2352813 13
-0.12372357 -0.29249021 -1.2371936 13
-0.12372357 -0.29440245 -1.2371936 49
-0.12181135 -0.29631469 -1.2314569 54
-0.12181135 -0.29631469 -1.2333691 54
-0.12372357 -0.29631469 -1.2371936 36
-0.1256358 -0.27719235 -1.2333691 0
-0.1256358 -0.27719235 -1.2371936 0
-0.11798687 -0.26954341 -1.2391058 8
-0.12181135 -0.27145565 -1.2391058 0
-0.12372357 -0.26954341 -1.2391058 0
-0.12372357 -0.27145565 -1.2391058 0
-0.12181135 -0.27528012 -1.2391058 0
-0.12372357 -0.27528012 -1.2391058 0
-0.12181135 -0.27719235 -1.2391058 29
-0.12181135 -0.27910459 -1.2391058 29
-0.12372357 -0.27719235 -1.2410181 29
-0.12372357 -0.27910459 -1.2410181 29
-0.12181135 -0.28292903 -1.2391058 56
-0.12372357 -0.28292903 -1.2410181 56
-0.12372357 -0.28292903 -1.2448425 54
-0.12181135 -0.28292903 -1.2467548 54
-0.12372357 -0.28101683 -1.2467548 0
-0.11989911 -0.28484127 -1.2391058 56
-0.12181135 -0.28484127 -1.2391058 59
-0.12181135 -0.28484127 -1.2410181 59
-0.12372357 -0.28675351 -1.2410181 10
-0.12181135 -0.28484127 -1.2448425 54
-0.12181135 -0.28866574 -1.2391058 7
-0.12372357 -0.28866574 -1.2410181 4
-0.12372357 -0.29057798 -1.2391058 5
-0.12372357 -0.28866574 -1.2448425 59
-0.12181135 -0.28484127 -1.2467548 54
-0.12181135 -0.28484127 -1.2505792 45
-0.12181135 -0.28484127 -1.2524915 45
-0.12181135 -0.28866574 -1.2467548 2
-0.12372357 -0.28866574 -1.2467548 59
-0.12181135 -0.28866574 -1.2524915 30
-0.12372357 -0.28866574 -1.2505792 28
-0.12372357 -0.28866574 -1.2524915 30
-0.12181135 -0.29057798 -1.2544037 30
-0.12372357 -0.29057798 -1.2544037 56
-0.1256358 -0.27145565 -1.2410181 0
-0.1256358 -0.27145565 -1.2429303 0
-0.12754804 -0.27145565 -1.2448425 0
-0.1256358 -0.27336788 -1.2391058 0
-0.1256358 -0.27336788 -1.2410181 0
-0.1256358 -0.27528012 -1.2391058 0
-0.12754804 -0.27528012 -1.2391058 0
-0.12754804 -0.27528012 -1.2410181 0
-0.12754804 -0.27528012 -1.2448425 0
-0.12946028 -0.27145565 -1.2467548 0
-0.13137251 -0.27145565 -1.2467548 0
-0.13137251 -0.27145565 -1.2505792 0
-0.12946028 -0.27528012 -1.2467548 0
-0.12946028 -0.27528012 -1.2505792 0
-0.13137251 -0.27336788 -1.2505792 0
-0.13137251 -0.27336788 -1.2524915 0
-0.13137251 -0.27528012 -1.2524915 0
-0.1256358 -0.27910459 -1.2391058 0
-0.12754804 -0.27910459 -1.2391058 0
-0.12754804 -0.27910459 -1.2410181 0
-0.12754804 -0.27910459 -1.2448425 0
-0.1256358 -0.28101683 -1.2391058 0
-0.1256358 -0.28101683 -1.2410181 0
-0.1256358 -0.28292903 -1.2448425 0
-0.1256358 -0.27910459 -1.2467548 0
-0.1256358 -0.27910459 -1.2505792 0
-0.12946028 -0.27719235 -1.2467548 0
-0.12946028 -0.27719235 -1.2505792 0
-0.13137251 -0.27719235 -1.2524915 0
-0.13328475 -0.27145565 -1.2505792 0
-0.13519697 -0.27145565 -1.2524915 0
-0.13328475 -0.27336788 -1.2524915 0
-0.13328475 -0.27528012 -1.2544037 0
-0.13328475 -0.27528012 -1.2563159 0
-0.13519697 -0.27528012 -1.2582282 0
-0.13519697 -0.27528012 -1.2601404 0
-0.13710921 -0.27528012 -1.2620527 0
-0.13328475 -0.27719235 -1.2544037 0
-0.13328475 -0.27719235 -1.2582282 0
-0.13328475 -0.27719235 -1.2601404 0
-0.13328475 -0.27910459 -1.2601404 0
-0.13328475 -0.27719235 -1.2620527 0
-0.13328475 -0.27910459 -1.2620527 0
-0.1256358 -0.29057798 -1.2448425 59
-0.1256358 -0.29057798 -1.2467548 59
-0.1256358 -0.29057798 -1.2505792 56
-0.1256358 -0.29057798 -1.2524915 56
-0.1256358 -0.29249021 -1.2467548 45
-0.1256358 -0.29249021 -1.248667 39
-0.1256358 -0.29249021 -1.2505792 29
-0.1256358 -0.29249021 -1.2524915 29
0.042640701 -0.30013913 -1.1760021 5
0.042640701 -0.30013913 -1.1779144 5
0.040728468 -0.30013913 -1.1798266 8
0.042640701 -0.3039636 -1.1798266 3
0.042640701 -0.30587584 -1.1798266 4
0.040728468 -0.3039636 -1.1798266 4
0.040728468 -0.30587584 -1.1817389 5
0.038816236 -0.30013913 -1.1817389 11
0.036904003 -0.30013913 -1.1836511 9
0.038816236 -0.3039636 -1.1817389 2
0.036904003 -0.30013913 -1.1855633 9
0.036904003 -0.30205137 -1.1855633 7
0.038816236 -0.3039636 -1.1855633 7
0.038816236 -0.30587584 -1.1855633 8
0.036904003 -0.3039636 -1.1855633 10
0.036904003 -0.3039636 -1.1874756 10
0.036904003 -0.30587584 -1.1855633 7
0.036904003 -0.30587584 -1.1874756 9
0.042640701 -0.30778807 -1.1798266 4
0.040728468 -0.30778807 -1.1817389 4
0.040728468 -0.30778807 -1.1836511 2
0.042640701 -0.31352478 -1.1798266 5
0.042640701 -0.31161255 -1.1817389 6
0.040728468 -0.31161255 -1.1836511 6
0.040728468 -0.31352478 -1.1817389 5
0.040728468 -0.31352478 -1.1836511 6
0.038816236 -0.30778807 -1.1855633 3
0.036904003 -0.30778807 -1.1855633 2
0.036904003 -0.30778807 -1.1874756 6
0.036904003 -0.30778807 -1.1893878 5
0.038816236 -0.31161255 -1.1855633 5
0.038816236 -0.31352478 -1.1855633 5
0.036904003 -0.31161255 -1.1874756 5
0.036904003 -0.31352478 -1.1874756 5
0.036904003 -0.31161255 -1.1893878 3
0.036904003 -0.31352478 -1.1893878 3
0.034991771 -0.30013913 -1.1855633 15
0.034991771 -0.30205137 -1.1874756 14
0.033079538 -0.30013913 -1.1855633 9
0.033079538 -0.30205137 -1.1874756 9
0.034991771 -0.3039636 -1.1893878 15
0.034991771 -0.30587584 -1.1893878 16
0.034991771 -0.30587584 -1.1913 15
0.033079538 -0.3039636 -1.1893878 11
0.033079538 -0.30587584 -1.1913 36
0.029255072 -0.30013913 -1.1855633 63
0.029255072 -0.30205137 -1.1874756 66
0.029255072 -0.3039636 -1.1893878 53
0.034991771 -0.30778807 -1.1913 15
0.033079538 -0.30587584 -1.1932123 36
0.031167304 -0.30587584 -1.1932123 55
0.029255072 -0.30587584 -1.1932123 64
0.034991771 -0.30970031 -1.1932123 13
0.033079538 -0.30778807 -1.1932123 37
0.034991771 -0.31161255 -1.1932123 8
0.034991771 -0.31352478 -1.1932123 8
0.034991771 -0.31352478 -1.1951245 11
0.033079538 -0.31161255 -1.1951245 18
0.033079538 -0.31352478 -1.1970367 13
0.029255072 -0.30778807 -1.1932123 64
0.029255072 -0.30778807 -1.1951245 64
0.029255072 -0.30778807 -1.1970367 36
0.031167304 -0.31161255 -1.1951245 28
0.029255072 -0.31161255 -1.1951245 24
0.031167304 -0.31352478 -1.1970367 28
0.029255072 -0.31161255 -1.1970367 24
0.029255072 -0.31352478 -1.1970367 24
0.029255072 -0.31352478 -1.198949 33
0.029255072 -0.31161255 -1.2008612 69
0.029255072 -0.31161255 -1.2027735 62
0.029255072 -0.31352478 -1.2008612 46
0.029255072 -0.31352478 -1.2027735 48
0.029255072 -0.31161255 -1.2046857 44
0.029255072 -0.31352478 -1.2046857 31
0.042640701 -0.31734926 -1.1798266 4
0.040728468 -0.31734926 -1.1817389 6
0.040728468 -0.31734926 -1.1836511 5
0.042640701 -0.31926146 -1.1798266 6
0.042640701 -0.3211737 -1.1798266 5
0.040728468 -0.31926146 -1.1817389 8
0.040728468 -0.31926146 -1.1836511 6
0.040728468 -0.3211737 -1.1817389 7
0.040728468 -0.3211737 -1.1836511 5
0.038816236 -0.31734926 -1.1855633 5
0.036904003 -0.31734926 -1.1874756 5
0.036904003 -0.31734926 -1.1893878 2
0.038816236 -0.31926146 -1.1855633 7
0.038816236 -0.3211737 -1.1855633 6
0.036904003 -0.31926146 -1.1855633 6
0.036904003 -0.31926146 -1.1874756 6
0.036904003 -0.3211737 -1.1855633 4
0.036904003 -0.3211737 -1.1874756 4
0.036904003 -0.31926146 -1.1893878 3
0.036904003 -0.3211737 -1.1893878 3
0.042640701 -0.32499817 -1.1798266 5
0.042640701 -0.32499817 -1.1817389 7
0.042640701 -0.32691041 -1.1798266 7
0.042640701 -0.32882264 -1.1798266 4
0.040728468 -0.32691041 -1.1817389 6
0.040728468 -0.32691041 -1.1836511 4
0.040728468 -0.32882264 -1.1817389 4
0.040728468 -0.32882264 -1.1836511 2
0.040728468 -0.32308593 -1.1855633 1
0.040728468 -0.32499817 -1.1855633 3
0.040728468 -0.32691041 -1.1855633 3
0.036904003 -0.32499817 -1.1874756 2
0.036904003 -0.32499817 -1.1893878 2
0.038816236 -0.32882264 -1.1855633 2
0.036904003 -0.32691041 -1.1874756 3
0.036904003 -0.32882264 -1.1874756 3
0.036904003 -0.32691041 -1.1893878 3
0.036904003 -0.32882264 -1.1893878 2
0.034991771 -0.31734926 -1.1932123 2
0.034991771 -0.31734926 -1.1951245 8
0.033079538 -0.31543702 -1.1970367 14
0.033079538 -0.31734926 -1.1970367 7
0.033079538 -0.31734926 -1.198949 15
0.034991771 -0.31926146 -1.1932123 8
0.034991771 -0.31926146 -1.1951245 8
0.034991771 -0.3211737 -1.1932123 8
0.033079538 -0.3211737 -1.1951245 15
0.033079538 -0.31926146 -1.1970367 14
0.033079538 -0.31926146 -1.198949 15
0.029255072 -0.31734926 -1.198949 23
0.031167304 -0.3211737 -1.1951245 31
0.029255072 -0.3211737 -1.1970367 20
0.029255072 -0.31734926 -1.2008612 34
0.029255072 -0.31734926 -1.2027735 39
0.029255072 -0.31734926 -1.2046857 16
0.031167304 -0.31926146 -1.2008612 44
0.029255072 -0.31926146 -1.2008612 34
0.029255072 -0.31926146 -1.2027735 39
0.029255072 -0.3211737 -1.2008612 30
0.029255072 -0.3211737 -1.2027735 30
0.029255072 -0.31926146 -1.2046857 20
0.029255072 -0.3211737 -1.2046857 11
0.034991771 -0.32499817 -1.1932123 8
0.033079538 -0.32308593 -1.1951245 23
0.033079538 -0.32499817 -1.1951245 23
0.033079538 -0.32499817 -1.1970367 19
0.034991771 -0.32691041 -1.1932123 11
0.034991771 -0.32882264 -1.1932123 9
0.033079538 -0.32691041 -1.1951245 23
0.033079538 -0.32882264 -1.1951245 21
0.033079538 -0.32691041 -1.1970367 19
0.031167304 -0.32499817 -1.1970367 43
0.029255072 -0.32499817 -1.198949 39
0.031167304 -0.32691041 -1.1970367 43
0.029255072 -0.32691041 -1.198949 39
0.029255072 -0.32882264 -1.1970367 18
0.029255072 -0.32499817 -1.2008612 34
0.029255072 -0.32499817 -1.2027735 21
0.029255072 -0.32499817 -1.2046857 7
0.029255072 -0.32691041 -1.2008612 34
0.029255072 -0.32691041 -1.2027735 21
0.029255072 -0.32882264 -1.2008612 34
0.029255072 -0.32882264 -1.2027735 21
0.029255072 -0.32691041 -1.2046857 7
0.029255072 -0.32882264 -1.2046857 5
0.027342837 -0.30013913 -1.1855633 63
0.027342837 -0.30205137 -1.1874756 66
0.025430605 -0.30013913 -1.1874756 12
0.025430605 -0.30013913 -1.1893878 10
0.027342837 -0.3039636 -1.1893878 53
0.025430605 -0.30205137 -1.1932123 10
0.025430605 -0.30205137 -1.1951245 10
0.027342837 -0.3039636 -1.1932123 34
0.027342837 -0.30587584 -1.1932123 54
0.027342837 -0.30587584 -1.1951245 54
0.025430605 -0.3039636 -1.1951245 10
0.027342837 -0.30587584 -1.1970367 36
0.025430605 -0.3039636 -1.1970367 10
0.023518372 -0.30013913 -1.1932123 6
0.023518372 -0.30013913 -1.1951245 6
0.021606138 -0.30013913 -1.1932123 24
0.021606138 -0.30013913 -1.1951245 24
0.023518372 -0.30013913 -1.1970367 5
0.021606138 -0.30013913 -1.1970367 4
0.023518372 -0.3039636 -1.1970367 5
0.025430605 -0.30013913 -1.2008612 27
0.025430605 -0.30013913 -1.2027735 27
0.025430605 -0.30205137 -1.2027735 27
0.025430605 -0.3039636 -1.2008612 21
0.025430605 -0.3039636 -1.2027735 22
0.025430605 -0.30587584 -1.2008612 11
0.025430605 -0.30587584 -1.2027735 12
0.027342837 -0.3039636 -1.2046857 22
0.027342837 -0.30587584 -1.2065979 25
0.025430605 -0.3039636 -1.2046857 22
0.025430605 -0.30587584 -1.2046857 12
0.023518372 -0.30013913 -1.2008612 27
0.021606138 -0.30013913 -1.2008612 27
0.021606138 -0.30013913 -1.2027735 27
0.023518372 -0.3039636 -1.2008612 21
0.023518372 -0.3039636 -1.2027735 22
0.027342837 -0.30778807 -1.1970367 36
0.027342837 -0.30778807 -1.2008612 6
0.027342837 -0.30778807 -1.2027735 6
0.027342837 -0.30970031 -1.2008612 49
0.027342837 -0.30970031 -1.2027735 49
0.027342837 -0.30778807 -1.2046857 6
0.027342837 -0.30778807 -1.2065979 25
0.027342837 -0.30970031 -1.2046857 25
0.019693905 -0.30013913 -1.1951245 28
0.017781673 -0.30013913 -1.1951245 28
0.019693905 -0.30013913 -1.1970367 7
0.017781673 -0.30013913 -1.1970367 5
0.019693905 -0.30013913 -1.2008612 31
0.019693905 -0.30205137 -1.2027735 31
0.017781673 -0.30013913 -1.2008612 31
0.017781673 -0.30205137 -1.2027735 31
0.019693905 -0.30013913 -1.2046857 25
0.017781673 -0.30013913 -1.2046857 6
0.017781673 -0.30013913 -1.2065979 8
0.017781673 -0.30205137 -1.2046857 6
0.013957206 -0.30013913 -1.2008612 4
0.013957206 -0.30205137 -1.2027735 4
0.013957206 -0.30205137 -1.2046857 3
0.042640701 -0.33264711 -1.1798266 7
0.040728468 -0.33264711 -1.1817389 3
0.040728468 -0.33264711 -1.1836511 2
0.042640701 -0.33455935 -1.1798266 7
0.042640701 -0.33455935 -1.1817389 8
0.042640701 -0.33647156 -1.1817389 8
0.040728468 -0.33455935 -1.1836511 2
0.040728468 -0.33455935 -1.1855633 1
0.040728468 -0.33647156 -1.1855633 1
0.038816236 -0.33264711 -1.1855633 1
0.038816236 -0.33264711 -1.1874756 2
0.036904003 -0.33073488 -1.1874756 3
0.036904003 -0.33264711 -1.1874756 2
0.036904003 -0.33264711 -1.1893878 2
0.038816236 -0.33455935 -1.1874756 2
0.038816236 -0.33647156 -1.1874756 2
0.036904003 -0.33455935 -1.1874756 2
0.036904003 -0.33455935 -1.1893878 2
0.036904003 -0.33647156 -1.1893878 2
0.042640701 -0.34029603 -1.1817389 3
0.042640701 -0.34220827 -1.1836511 4
0.040728468 -0.34029603 -1.1855633 1
0.042640701 -0.34220827 -1.1855633 4
0.042640701 -0.3441205 -1.1855633 4
0.040728468 -0.34220827 -1.1855633 2
0.040728468 -0.3441205 -1.1874756 2
0.038816236 -0.34029603 -1.1874756 1
0.038816236 -0.34029603 -1.1893878 2
0.036904003 -0.33838379 -1.1893878 2
0.036904003 -0.34029603 -1.1913 4
0.038816236 -0.34220827 -1.1874756 2
0.038816236 -0.34220827 -1.1893878 3
0.038816236 -0.3441205 -1.1893878 3
0.036904003 -0.34220827 -1.1913 4
0.036904003 -0.33647156 -1.1932123 2
0.036904003 -0.34029603 -1.1932123 7
0.036904003 -0.34220827 -1.1932123 7
0.036904003 -0.34220827 -1.1951245 9
0.036904003 -0.3441205 -1.1932123 4
0.036904003 -0.3441205 -1.1951245 9
0.036904003 -0.3441205 -1.1970367 9
0.034991771 -0.33264711 -1.1932123 18
0.033079538 -0.33264711 -1.1951245 18
0.034991771 -0.33455935 -1.1932123 19
0.034991771 -0.33647156 -1.1951245 22
0.033079538 -0.33455935 -1.1951245 19
0.033079538 -0.33647156 -1.1970367 20
0.029255072 -0.33264711 -1.1970367 14
0.029255072 -0.33455935 -1.1970367 14
0.029255072 -0.33647156 -1.1970367 9
0.029255072 -0.33264711 -1.2027735 22
0.029255072 -0.33264711 -1.2046857 22
0.029255072 -0.33455935 -1.2008612 13
0.029255072 -0.33647156 -1.2008612 13
0.029255072 -0.33647156 -1.2027735 22
0.034991771 -0.34029603 -1.1951245 25
0.034991771 -0.34029603 -1.1970367 27
0.033079538 -0.33838379 -1.1970367 22
0.033079538 -0.34029603 -1.198949 34
0.034991771 -0.34220827 -1.1970367 27
0.034991771 -0.34220827 -1.198949 34
0.029255072 -0.33838379 -1.1970367 8
0.029255072 -0.34029603 -1.198949 18
0.034991771 -0.3441205 -1.2008612 45
0.033079538 -0.34220827 -1.2008612 45
0.033079538 -0.3441205 -1.2027735 38
0.029255072 -0.34029603 -1.2008612 22
0.029255072 -0.34029603 -1.2027735 16
0.029255072 -0.34029603 -1.2046857 9
0.029255072 -0.34220827 -1.2008612 22
0.029255072 -0.34220827 -1.2027735 20
0.029255072 -0.3441205 -1.2027735 20
0.029255072 -0.34220827 -1.2046857 17
0.042640701 -0.34794497 -1.1874756 3
0.040728468 -0.34794497 -1.1893878 3
0.042640701 -0.34985721 -1.1874756 3
0.040728468 -0.34985721 -1.1893878 3
0.038816236 -0.34794497 -1.1893878 2
0.042640701 -0.35368168 -1.1874756 3
0.042640701 -0.35559389 -1.1893878 5
0.040728468 -0.35368168 -1.1893878 1
0.040728468 -0.35368168 -1.1913 2
0.040728468 -0.35559389 -1.1913 4
0.042640701 -0.35750613 -1.1893878 4
0.040728468 -0.35750613 -1.1913 4
0.038816236 -0.34794497 -1.1932123 8
0.036904003 -0.34603274 -1.1932123 4
0.036904003 -0.34794497 -1.1932123 8
0.036904003 -0.34794497 -1.1951245 15
0.036904003 -0.34794497 -1.1970367 13
0.038816236 -0.34985721 -1.1932123 8
0.036904003 -0.34985721 -1.1932123 8
0.036904003 -0.34985721 -1.1951245 15
0.038816236 -0.35368168 -1.1932123 4
0.038816236 -0.35559389 -1.1932123 5
0.036904003 -0.35368168 -1.1932123 2
0.036904003 -0.35368168 -1.1951245 12
0.036904003 -0.35559389 -1.1932123 5
0.036904003 -0.35559389 -1.1951245 12
0.036904003 -0.35559389 -1.1970367 16
0.038816236 -0.35750613 -1.1932123 5
0.036904003 -0.35750613 -1.1932123 5
0.036904003 -0.35750613 -1.1951245 12
0.034991771 -0.34794497 -1.198949 70
0.034991771 -0.34985721 -1.1970367 13
0.034991771 -0.34985721 -1.198949 70
0.034991771 -0.34794497 -1.2008612 70
0.033079538 -0.34794497 -1.2008612 70
0.033079538 -0.34985721 -1.2008612 70
0.033079538 -0.35176945 -1.2008612 65
0.029255072 -0.34794497 -1.2027735 19
0.029255072 -0.34985721 -1.2027735 19
0.029255072 -0.34985721 -1.2046857 19
0.034991771 -0.35368168 -1.1970367 62
0.034991771 -0.35368168 -1.198949 78
0.034991771 -0.35559389 -1.198949 78
0.033079538 -0.35368168 -1.198949 78
0.034991771 -0.35750613 -1.1970367 77
0.033079538 -0.35750613 -1.198949 73
0.033079538 -0.35559389 -1.2008612 78
0.031167304 -0.35368168 -1.2008612 23
0.029255072 -0.35368168 -1.2008612 17
0.029255072 -0.35368168 -1.2027735 17
0.029255072 -0.35559389 -1.2027735 20
0.029255072 -0.35368168 -1.2046857 11
0.029255072 -0.35559389 -1.2046857 14
0.031167304 -0.35750613 -1.2008612 7
0.031167304 -0.35750613 -1.2027735 11
0.029255072 -0.35750613 -1.2046857 6
0.029255072 -0.35941836 -1.2046857 6
0.027342837 -0.33264711 -1.2008612 13
0.027342837 -0.33455935 -1.2027735 22
0.027342837 -0.33455935 -1.2046857 22
0.027342837 -0.33647156 -1.2046857 13
0.027342837 -0.3441205 -1.2046857 17
0.027342837 -0.34794497 -1.2046857 19
0.012044974 -0.30013913 -1.2008612 4
0.012044974 -0.30205137 -1.2027735 4
0.012044974 -0.30205137 -1.2046857 3
0.0082205068 -0.30013913 -1.2008612 15
0.0082205068 -0.30013913 -1.2027735 15
0.0082205068 -0.30205137 -1.2027735 15
0.0063082739 -0.30013913 -1.2027735 15
0.0063082739 -0.30205137 -1.2027735 15
0.0082205068 -0.30205137 -1.2046857 15
0.0063082739 -0.30013913 -1.2046857 15
0.0063082739 -0.30205137 -1.2046857 15
0.042640701 -0.3613306 -1.1893878 2
0.042640701 -0.36324283 -1.1913 3
0.040728468 -0.3613306 -1.1913 3
0.042640701 -0.36515507 -1.1913 3
0.040728468 -0.36324283 -1.1932123 4
0.042640701 -0.36515507 -1.1932123 3
0.040728468 -0.36515507 -1.1932123 4
0.040728468 -0.36706731 -1.1951245 6
0.038816236 -0.3613306 -1.1932123 3
0.038816236 -0.36324283 -1.1951245 9
0.036904003 -0.3613306 -1.1951245 8
0.036904003 -0.3613306 -1.1970367 17
0.036904003 -0.36324283 -1.1970367 18
0.038816236 -0.36515507 -1.1951245 5
0.038816236 -0.36515507 -1.1970367 5
0.036904003 -0.36515507 -1.1970367 4
0.036904003 -0.36515507 -1.198949 23
0.036904003 -0.36515507 -1.2008612 23
0.036904003 -0.36706731 -1.2008612 22
0.042640701 -0.36897954 -1.1932123 2
0.042640701 -0.37089178 -1.1932123 1
0.040728468 -0.36897954 -1.1951245 3
0.040728468 -0.37089178 -1.1951245 4
0.042640701 -0.37280399 -1.1951245 1
0.042640701 -0.37471622 -1.1951245 3
0.040728468 -0.37280399 -1.1970367 2
0.040728468 -0.37280399 -1.198949 3
0.038816236 -0.36897954 -1.1970367 3
0.038816236 -0.37089178 -1.1970367 4
0.038816236 -0.36897954 -1.2008612 5
0.038816236 -0.37089178 -1.2008612 6
0.038816236 -0.37089178 -1.2027735 16
0.036904003 -0.36897954 -1.2027735 22
0.036904003 -0.37089178 -1.2027735 16
0.036904003 -0.37089178 -1.2046857 14
0.038816236 -0.37280399 -1.2008612 4
0.038816236 -0.37280399 -1.2027735 14
0.036904003 -0.37280399 -1.2046857 14
0.034991771 -0.3613306 -1.198949 89
0.033079538 -0.3613306 -1.198949 75
0.034991771 -0.36324283 -1.2008612 97
0.033079538 -0.3613306 -1.2008612 75
0.033079538 -0.36324283 -1.2008612 79
0.034991771 -0.36515507 -1.2027735 97
0.034991771 -0.36706731 -1.2027735 97
0.033079538 -0.36515507 -1.2027735 78
0.033079538 -0.36706731 -1.2046857 87
0.031167304 -0.3613306 -1.2027735 9
0.031167304 -0.36324283 -1.2027735 13
0.031167304 -0.3613306 -1.2046857 9
0.031167304 -0.36324283 -1.2046857 13
0.031167304 -0.36515507 -1.2046857 10
0.034991771 -0.36897954 -1.2046857 89
0.033079538 -0.36897954 -1.2046857 81
0.033079538 -0.36897954 -1.2065979 92
0.042640701 -0.37662846 -1.1951245 6
0.042640701 -0.37854069 -1.1970367 8
0.040728468 -0.37662846 -1.1970367 8
0.040728468 -0.37662846 -1.198949 12
0.040728468 -0.37854069 -1.1970367 8
0.040728468 -0.37854069 -1.198949 12
0.042640701 -0.38236517 -1.1970367 16
0.040728468 -0.38236517 -1.198949 17
0.038816236 -0.37662846 -1.2008612 7
0.038816236 -0.37662846 -1.2027735 16
0.038816236 -0.37854069 -1.2008612 7
0.038816236 -0.37854069 -1.2027735 16
0.036904003 -0.37662846 -1.2046857 31
0.036904003 -0.37854069 -1.2046857 31
0.038816236 -0.38236517 -1.2008612 11
0.038816236 -0.38236517 -1.2027735 14
0.036904003 -0.38236517 -1.2046857 19
0.042640701 -0.38618964 -1.1951245 20
0.042640701 -0.3842774 -1.1970367 29
0.040728468 -0.3842774 -1.198949 36
0.040728468 -0.38618964 -1.1970367 27
0.040728468 -0.38618964 -1.198949 34
0.042640701 -0.39001411 -1.1951245 23
0.040728468 -0.39001411 -1.1970367 44
0.040728468 -0.39001411 -1.198949 44
0.040728468 -0.3842774 -1.2008612 27
0.038816236 -0.3842774 -1.2027735 28
0.038816236 -0.38618964 -1.2008612 23
0.036904003 -0.38618964 -1.2027735 33
0.036904003 -0.3842774 -1.2046857 40
0.038816236 -0.39001411 -1.2008612 41
0.036904003 -0.39001411 -1.2027735 43
0.034991771 -0.37662846 -1.2065979 43
0.034991771 -0.37854069 -1.2065979 43
0.034991771 -0.38236517 -1.2046857 18
0.034991771 -0.38236517 -1.2065979 24
0.034991771 -0.3842774 -1.2065979 39
0.034991771 -0.38618964 -1.2046857 28
0.034991771 -0.38618964 -1.2065979 28
0.034991771 -0.39001411 -1.2027735 29
0.034991771 -0.39001411 -1.2046857 29
0.042640701 -0.39192632 -1.1951245 23
0.042640701 -0.39383855 -1.1951245 23
0.042640701 -0.39383855 -1.1970367 44
0.040728468 -0.39192632 -1.1970367 44
0.040728468 -0.39192632 -1.198949 45
0.042640701 -0.39766303 -1.1951245 11
0.042640701 -0.39766303 -1.1970367 11
0.040728468 -0.39383855 -1.2008612 21
0.040728468 -0.39766303 -1.2008612 27
0.040728468 -0.39766303 -1.2027735 42
0.038816236 -0.39192632 -1.2008612 41
0.038816236 -0.39383855 -1.2027735 42
0.036904003 -0.39192632 -1.2027735 45
0.036904003 -0.39383855 -1.2046857 34
0.038816236 -0.39766303 -1.2046857 23
0.036904003 -0.39575079 -1.2046857 36
0.036904003 -0.39766303 -1.2065979 17
0.042640701 -0.39957526 -1.1970367 11
0.042640701 -0.4014875 -1.1970367 4
0.042640701 -0.40339974 -1.1970367 5
0.042640701 -0.40531197 -1.198949 28
0.040728468 -0.39957526 -1.2008612 38
0.040728468 -0.4014875 -1.2008612 18
0.042640701 -0.40531197 -1.2008612 54
0.040728468 -0.40531197 -1.2027735 34
0.038816236 -0.39957526 -1.2027735 62
0.038816236 -0.4014875 -1.2027735 42
0.038816236 -0.39957526 -1.2046857 41
0.038816236 -0.4014875 -1.2046857 41
0.036904003 -0.39957526 -1.2065979 22
0.036904003 -0.4014875 -1.2065979 22
0.036904003 -0.40531197 -1.2046857 9
0.034991771 -0.39192632 -1.2046857 32
0.034991771 -0.39383855 -1.2046857 15
0.034991771 -0.39383855 -1.2065979 11
0.034991771 -0.39957526 -1.2065979 19
0.034991771 -0.4014875 -1.2065979 19
0.034991771 -0.40531197 -1.2046857 9
0.042640701 -0.40722421 -1.198949 23
0.042640701 -0.41104865 -1.198949 25
0.042640701 -0.40722421 -1.2008612 61
0.040728468 -0.40722421 -1.2027735 41
0.040728468 -0.40913641 -1.2027735 44
0.042640701 -0.41104865 -1.2008612 32
0.042640701 -0.41296089 -1.2008612 34
0.040728468 -0.41104865 -1.2027735 25
0.040728468 -0.41296089 -1.2008612 34
0.040728468 -0.41296089 -1.2027735 27
0.036904003 -0.40722421 -1.2046857 9
0.038816236 -0.41296089 -1.2046857 17
0.036904003 -0.41104865 -1.2046857 13
0.042640701 -0.41487312 -1.2008612 25
0.040728468 -0.41487312 -1.2027735 25
0.040728468 -0.41678536 -1.2027735 10
0.042640701 -0.4186976 -1.2027735 9
0.040728468 -0.4186976 -1.2027735 9
0.042640701 -0.42060983 -1.2046857 9
0.040728468 -0.42060983 -1.2046857 9
0.038816236 -0.41487312 -1.2046857 10
0.038816236 -0.4186976 -1.2046857 3
0.034991771 -0.40722421 -1.2065979 9
-0.022375222 -0.30013913 -1.2046857 21
-0.022375222 -0.30013913 -1.2065979 21
-0.024287455 -0.30013913 -1.2065979 2
-0.022375222 -0.3039636 -1.2065979 9
-0.024287455 -0.3039636 -1.2065979 3
-0.026199689 -0.30013913 -1.2046857 1
-0.028111922 -0.30013913 -1.2046857 3
-0.026199689 -0.3039636 -1.2046857 1
-0.028111922 -0.3039636 -1.2046857 1
-0.028111922 -0.30587584 -1.2065979 3
-0.031936388 -0.30013913 -1.2027735 3
-0.030024154 -0.30013913 -1.2046857 4
-0.030024154 -0.3039636 -1.2046857 2
-0.030024154 -0.30587584 -1.2065979 4
-0.031936388 -0.3039636 -1.2046857 1
-0.031936388 -0.30587584 -1.2046857 4
-0.028111922 -0.30778807 -1.2065979 3
-0.028111922 -0.31161255 -1.2065979 3
-0.028111922 -0.31352478 -1.2065979 3
-0.030024154 -0.30778807 -1.2065979 3
-0.031936388 -0.30778807 -1.2046857 3
-0.030024154 -0.31161255 -1.2065979 3
-0.030024154 -0.31352478 -1.2046857 3
-0.031936388 -0.31161255 -1.2046857 3
-0.031936388 -0.31352478 -1.2046857 3
-0.022375222 -0.3211737 -1.2065979 1
-0.024287455 -0.3211737 -1.2065979 1
-0.022375222 -0.32499817 -1.2065979 1
-0.024287455 -0.32499817 -1.2065979 1
-0.028111922 -0.31734926 -1.2065979 2
-0.028111922 -0.31926146 -1.2065979 2
-0.028111922 -0.3211737 -1.2065979 2
-0.030024154 -0.31734926 -1.2065979 3
-0.031936388 -0.31734926 -1.2046857 3
-0.030024154 -0.31926146 -1.2065979 3
-0.030024154 -0.3211737 -1.2046857 2
-0.031936388 -0.31926146 -1.2046857 3
-0.031936388 -0.3211737 -1.2046857 1
-0.028111922 -0.32499817 -1.2065979 1
-0.030024154 -0.32308593 -1.2046857 3
-0.030024154 -0.32499817 -1.2046857 2
-0.031936388 -0.32499817 -1.2046857 2
-0.030024154 -0.32691041 -1.2065979 2
-0.031936388 -0.32691041 -1.2046857 1
-0.031936388 -0.32691041 -1.2065979 1
-0.035760853 -0.30013913 -1.2046857 3
-0.035760853 -0.3039636 -1.2046857 2
-0.035760853 -0.30587584 -1.2046857 3
-0.037673086 -0.30013913 -1.2027735 3
-0.039585318 -0.30013913 -1.2008612 3
-0.037673086 -0.30013913 -1.2046857 3
-0.039585318 -0.3039636 -1.2027735 2
-0.039585318 -0.30587584 -1.2027735 3
-0.037673086 -0.3039636 -1.2046857 2
-0.037673086 -0.30587584 -1.2046857 3
-0.035760853 -0.30778807 -1.2046857 2
-0.035760853 -0.31161255 -1.2046857 1
-0.035760853 -0.31352478 -1.2046857 1
-0.039585318 -0.30778807 -1.2027735 2
-0.037673086 -0.30778807 -1.2046857 2
-0.039585318 -0.31161255 -1.2008612 1
-0.039585318 -0.31161255 -1.2027735 1
-0.039585318 -0.31352478 -1.2008612 1
-0.039585318 -0.31352478 -1.2027735 1
-0.037673086 -0.31161255 -1.2046857 1
-0.037673086 -0.31352478 -1.2046857 1
-0.047234252 -0.3039636 -1.198949 3
-0.047234252 -0.30587584 -1.198949 3
-0.043409787 -0.30013913 -1.2008612 4
-0.043409787 -0.3039636 -1.2008612 3
-0.043409787 -0.30587584 -1.2008612 5
-0.04532202 -0.30013913 -1.2008612 4
-0.047234252 -0.30013913 -1.2008612 2
-0.04532202 -0.3039636 -1.2008612 3
-0.04532202 -0.30587584 -1.2008612 5
-0.047234252 -0.3039636 -1.2008612 3
-0.047234252 -0.30778807 -1.1970367 1
-0.047234252 -0.31161255 -1.198949 1
-0.047234252 -0.31352478 -1.198949 1
-0.043409787 -0.30778807 -1.2008612 5
-0.043409787 -0.31161255 -1.2008612 1
-0.043409787 -0.31352478 -1.2008612 1
-0.04532202 -0.30778807 -1.2008612 5
-0.04532202 -0.31161255 -1.2008612 2
-0.04532202 -0.31352478 -1.2008612 2
-0.047234252 -0.31352478 -1.2008612 1
-0.035760853 -0.31734926 -1.2046857 1
-0.035760853 -0.31926146 -1.2046857 1
-0.035760853 -0.3211737 -1.2046857 1
-0.037673086 -0.31734926 -1.2027735 1
-0.039585318 -0.31734926 -1.2027735 1
-0.039585318 -0.31926146 -1.2027735 3
-0.039585318 -0.3211737 -1.2008612 2
-0.039585318 -0.3211737 -1.2027735 2
-0.037673086 -0.31926146 -1.2046857 1
-0.037673086 -0.3211737 -1.2046857 1
-0.035760853 -0.32499817 -1.2046857 1
-0.033848621 -0.32691041 -1.2046857 1
-0.035760853 -0.32691041 -1.2046857 1
-0.035760853 -0.32882264 -1.2046857 1
-0.035760853 -0.32882264 -1.2065979 1
-0.039585318 -0.32499817 -1.2027735 1
-0.037673086 -0.32499817 -1.2046857 2
-0.037673086 -0.32691041 -1.2046857 2
-0.037673086 -0.32882264 -1.2046857 2
-0.039585318 -0.32691041 -1.2046857 2
-0.039585318 -0.32882264 -1.2046857 2
-0.047234252 -0.31734926 -1.198949 1
-0.047234252 -0.31926146 -1.198949 1
-0.047234252 -0.3211737 -1.198949 1
-0.043409787 -0.31734926 -1.2027735 2
-0.043409787 -0.31926146 -1.2027735 2
-0.043409787 -0.3211737 -1.2008612 2
-0.04532202 -0.31734926 -1.2008612 2
-0.047234252 -0.31734926 -1.2008612 1
-0.04532202 -0.31926146 -1.2008612 2
-0.04532202 -0.3211737 -1.2008612 2
-0.047234252 -0.31926146 -1.2008612 1
-0.043409787 -0.32499817 -1.2027735 0
-0.043409787 -0.32691041 -1.2046857 1
-0.043409787 -0.32882264 -1.2046857 1
-0.04532202 -0.32499817 -1.2008612 0
-0.047234252 -0.32499817 -1.2008612 0
-0.04532202 -0.32691041 -1.2027735 1
-0.047234252 -0.32691041 -1.2027735 3
-0.047234252 -0.32882264 -1.2027735 3
-0.04532202 -0.32882264 -1.2046857 1
-0.035760853 -0.33073488 -1.2046857 1
-0.035760853 -0.33264711 -1.2046857 2
-0.035760853 -0.33455935 -1.2065979 1
-0.037673086 -0.33264711 -1.2046857 2
-0.039585318 -0.33264711 -1.2046857 0
-0.037673086 -0.33455935 -1.2046857 1
-0.037673086 -0.33455935 -1.2065979 1
-0.037673086 -0.33647156 -1.2065979 1
-0.039585318 -0.33455935 -1.2046857 0
-0.039585318 -0.33647156 -1.2046857 1
-0.039585318 -0.33838379 -1.2046857 1
-0.039585318 -0.34029603 -1.2065979 1
-0.039585318 -0.34220827 -1.2046857 1
-0.043409787 -0.33264711 -1.2046857 2
-0.043409787 -0.33455935 -1.2046857 2
-0.043409787 -0.33647156 -1.2046857 3
-0.04532202 -0.33264711 -1.2046857 3
-0.047234252 -0.33264711 -1.2046857 3
-0.04532202 -0.33455935 -1.2046857 3
-0.04532202 -0.33647156 -1.2046857 3
-0.047234252 -0.33455935 -1.2046857 3
-0.047234252 -0.33647156 -1.2065979 3
-0.043409787 -0.33838379 -1.2046857 1
-0.043409787 -0.34029603 -1.2065979 1
-0.041497555 -0.34220827 -1.2046857 1
-0.043409787 -0.34220827 -1.2065979 1
-0.051058717 -0.30013913 -1.198949 2
-0.051058717 -0.3039636 -1.198949 3
-0.051058717 -0.30587584 -1.198949 3
-0.052970953 -0.30013913 -1.198949 2
-0.052970953 -0.3039636 -1.198949 3
-0.052970953 -0.30587584 -1.1970367 3
-0.054883186 -0.30013913 -1.2008612 3
-0.054883186 -0.3039636 -1.2008612 1
-0.051058717 -0.30778807 -1.198949 3
-0.051058717 -0.31161255 -1.198949 3
-0.052970953 -0.30778807 -1.198949 3
-0.052970953 -0.31161255 -1.198949 3
-0.052970953 -0.31352478 -1.198949 3
-0.051058717 -0.31352478 -1.2008612 3
-0.058707651 -0.30013913 -1.1970367 5
-0.058707651 -0.3039636 -1.1970367 1
-0.058707651 -0.30587584 -1.1970367 1
-0.060619883 -0.30013913 -1.1970367 3
-0.060619883 -0.30013913 -1.198949 3
-0.062532119 -0.30013913 -1.1970367 2
-0.060619883 -0.3039636 -1.198949 1
-0.060619883 -0.30587584 -1.198949 2
-0.056795418 -0.30013913 -1.2008612 3
-0.056795418 -0.3039636 -1.2008612 0
-0.056795418 -0.30587584 -1.2008612 0
-0.058707651 -0.30778807 -1.198949 1
-0.056795418 -0.31161255 -1.198949 1
-0.058707651 -0.31161255 -1.198949 2
-0.058707651 -0.31352478 -1.198949 4
-0.056795418 -0.30778807 -1.2008612 0
-0.056795418 -0.31352478 -1.2008612 1
-0.060619883 -0.30778807 -1.2008612 1
-0.060619883 -0.31161255 -1.2008612 1
-0.060619883 -0.31352478 -1.2008612 3
-0.051058717 -0.31734926 -1.198949 1
-0.049146485 -0.3211737 -1.1970367 2
-0.051058717 -0.31926146 -1.1970367 1
-0.051058717 -0.3211737 -1.1970367 2
-0.052970953 -0.31734926 -1.198949 1
-0.052970953 -0.31926146 -1.1970367 1
-0.052970953 -0.3211737 -1.1970367 1
-0.051058717 -0.32308593 -1.1970367 2
-0.051058717 -0.32499817 -1.198949 2
-0.052970953 -0.32499817 -1.198949 2
-0.049146485 -0.32882264 -1.2027735 5
-0.051058717 -0.32691041 -1.2008612 4
-0.051058717 -0.32882264 -1.2027735 4
-0.052970953 -0.32691041 -1.2008612 4
-0.052970953 -0.32882264 -1.2027735 4
-0.054883186 -0.32882264 -1.2027735 2
-0.056795418 -0.31734926 -1.198949 1
-0.058707651 -0.31734926 -1.198949 1
-0.056795418 -0.31926146 -1.2008612 1
-0.056795418 -0.3211737 -1.2008612 1
-0.058707651 -0.31926146 -1.2008612 1
-0.058707651 -0.3211737 -1.2008612 1
-0.060619883 -0.31543702 -1.2008612 3
-0.060619883 -0.31734926 -1.2008612 1
-0.060619883 -0.31926146 -1.2008612 1
-0.060619883 -0.3211737 -1.2008612 1
-0.058707651 -0.32499817 -1.198949 2
-0.060619883 -0.32499817 -1.198949 1
-0.056795418 -0.32499817 -1.2008612 2
-0.056795418 -0.32691041 -1.2008612 3
-0.056795418 -0.32882264 -1.2027735 2
-0.058707651 -0.32691041 -1.2008612 3
-0.058707651 -0.32882264 -1.2008612 2
-0.062532119 -0.32499817 -1.2008612 2
-0.060619883 -0.32691041 -1.2008612 3
-0.060619883 -0.32882264 -1.2027735 2
-0.062532119 -0.32882264 -1.2027735 2
-0.066356584 -0.30013913 -1.1951245 3
-0.064444348 -0.30013913 -1.1970367 2
-0.064444348 -0.30205137 -1.1970367 2
-0.066356584 -0.3039636 -1.1951245 3
-0.064444348 -0.3039636 -1.1970367 3
-0.064444348 -0.3039636 -1.198949 3
-0.064444348 -0.30587584 -1.1970367 4
-0.064444348 -0.30587584 -1.198949 4
-0.066356584 -0.30587584 -1.1970367 4
-0.068268813 -0.30013913 -1.1951245 2
-0.068268813 -0.30205137 -1.1951245 2
