# .PCD v0.7 - Point Cloud Data file format
VERSION 0.7
FIELDS x y z intensity
SIZE 4 4 4 4
TYPE F F F F
COUNT 1 1 1 1
WIDTH 1264
HEIGHT 1
VIEWPOINT 0 0 0 1 0 0 0
POINTS 1264
DATA ascii
0.056026336 -0.059197776 -1.0803905 158
0.056026336 -0.061110009 -1.0803905 158
0.0541141 -0.055373311 -1.0823027 163
0.0541141 -0.061110009 -1.0803905 158
0.0541141 -0.059197776 -1.0823027 158
0.057938568 -0.066846706 -1.076566 147
0.057938568 -0.063022241 -1.0784782 154
0.056026336 -0.063022241 -1.0803905 155
0.056026336 -0.063022241 -1.0823027 155
0.057938568 -0.066846706 -1.0784782 148
0.057938568 -0.068758942 -1.0784782 148
0.057938568 -0.068758942 -1.0803905 150
0.056026336 -0.066846706 -1.0803905 152
0.056026336 -0.066846706 -1.0823027 152
0.056026336 -0.068758942 -1.0823027 152
0.0541141 -0.063022241 -1.0823027 155
0.0541141 -0.066846706 -1.0823027 154
0.0541141 -0.068758942 -1.0823027 154
0.0541141 -0.068758942 -1.0842149 154
0.052201867 -0.066846706 -1.0823027 155
0.050289635 -0.055373311 -1.0842149 166
0.048377402 -0.055373311 -1.0842149 166
0.048377402 -0.061110009 -1.0803905 164
0.050289635 -0.059197776 -1.0823027 162
0.050289635 -0.059197776 -1.0842149 162
0.050289635 -0.061110009 -1.0823027 162
0.048377402 -0.059197776 -1.0823027 164
0.04646517 -0.055373311 -1.0842149 166
0.04646517 -0.057285544 -1.0823027 166
0.04646517 -0.061110009 -1.0803905 164
0.04646517 -0.059197776 -1.0823027 164
0.050289635 -0.063022241 -1.0823027 159
0.050289635 -0.063022241 -1.0842149 159
0.048377402 -0.063022241 -1.0823027 163
0.048377402 -0.063022241 -1.0842149 161
0.050289635 -0.066846706 -1.0842149 157
0.050289635 -0.068758942 -1.0842149 157
0.048377402 -0.066846706 -1.0842149 159
0.04646517 -0.063022241 -1.0823027 163
0.04646517 -0.063022241 -1.0842149 161
0.04646517 -0.066846706 -1.0842149 160
0.057938568 -0.070671171 -1.0803905 150
0.056026336 -0.070671171 -1.0823027 151
0.057938568 -0.074495643 -1.0803905 149
0.057938568 -0.076407872 -1.0823027 149
0.056026336 -0.074495643 -1.0823027 151
0.056026336 -0.076407872 -1.0842149 151
0.0541141 -0.070671171 -1.0823027 152
0.052201867 -0.070671171 -1.0823027 155
0.0541141 -0.074495643 -1.0823027 151
0.0541141 -0.076407872 -1.0842149 151
0.057938568 -0.080232337 -1.0842149 148
0.050289635 -0.070671171 -1.0842149 157
0.16693585 -0.11082807 -1.1607043 147
0.16693585 -0.1127403 -1.1607043 151
0.16693585 -0.11082807 -1.1645287 149
0.16693585 -0.11082807 -1.166441 149
0.16693585 -0.11082807 -1.1683532 149
0.16693585 -0.1127403 -1.1645287 149
0.16693585 -0.1127403 -1.166441 149
0.16693585 -0.1127403 -1.1683532 149
0.16693585 -0.11082807 -1.1721777 148
0.16693585 -0.1127403 -1.1721777 148
0.16693585 -0.1127403 -1.1740899 148
0.16693585 -0.16628283 -1.1454065 128
0.16693585 -0.17393176 -1.1454065 119
0.16693585 -0.12038923 -1.1607043 162
0.16693585 -0.12612593 -1.1568798 154
0.16693585 -0.1242137 -1.158792 154
0.16693585 -0.1242137 -1.1607043 154
0.16693585 -0.12612593 -1.158792 156
0.16693585 -0.12612593 -1.1607043 156
0.16693585 -0.12803817 -1.1568798 152
0.16884808 -0.12803817 -1.1607043 156
0.16693585 -0.12803817 -1.158792 156
0.16693585 -0.11656477 -1.1683532 157
0.16693585 -0.12038923 -1.1645287 161
0.16693585 -0.11656477 -1.1721777 153
0.16693585 -0.118477 -1.1721777 153
0.16693585 -0.11656477 -1.1740899 153
0.16693585 -0.118477 -1.1740899 153
0.16693585 -0.1242137 -1.1645287 155
0.16693585 -0.12612593 -1.1645287 157
0.16884808 -0.12803817 -1.1645287 157
0.16884808 -0.1299504 -1.166441 157
0.16693585 -0.12803817 -1.166441 157
0.16693585 -0.12803817 -1.1683532 153
0.17458479 -0.14524826 -1.1607043 129
0.16884808 -0.13377486 -1.1530553 147
0.16693585 -0.13186263 -1.1530553 149
0.16693585 -0.13377486 -1.1511431 149
0.16693585 -0.13377486 -1.1530553 147
0.16884808 -0.13759933 -1.1530553 145
0.16693585 -0.13759933 -1.1511431 146
0.16693585 -0.13759933 -1.1530553 145
0.17076032 -0.13759933 -1.1607043 144
0.16884808 -0.13377486 -1.1568798 148
0.16693585 -0.13186263 -1.1568798 148
0.16884808 -0.13186263 -1.158792 148
0.16884808 -0.13186263 -1.1607043 148
0.16884808 -0.13377486 -1.158792 148
0.16884808 -0.13377486 -1.1607043 148
0.16693585 -0.13186263 -1.158792 148
0.16884808 -0.13759933 -1.1568798 144
0.16884808 -0.13759933 -1.158792 144
0.16884808 -0.13759933 -1.1607043 144
0.17076032 -0.13951157 -1.1530553 142
0.17076032 -0.14142379 -1.1530553 140
0.17076032 -0.14333603 -1.1530553 140
0.16884808 -0.13951157 -1.1530553 145
0.16884808 -0.14142379 -1.1530553 140
0.16884808 -0.14333603 -1.1530553 140
0.16884808 -0.14524826 -1.1530553 140
0.16693585 -0.14524826 -1.1530553 142
0.17267255 -0.14142379 -1.1549675 138
0.17267255 -0.14142379 -1.1568798 138
0.17076032 -0.13951157 -1.1568798 144
0.17267255 -0.14142379 -1.158792 138
0.17267255 -0.14142379 -1.1607043 130
0.17076032 -0.13951157 -1.158792 144
0.17076032 -0.13951157 -1.1607043 144
0.17267255 -0.14524826 -1.1549675 137
0.17267255 -0.14524826 -1.1568798 137
0.17076032 -0.14524826 -1.1549675 140
0.17267255 -0.14333603 -1.1607043 130
0.17267255 -0.14524826 -1.158792 129
0.16884808 -0.14524826 -1.1549675 140
0.17458479 -0.14142379 -1.166441 141
0.17458479 -0.14142379 -1.1683532 141
0.17458479 -0.14524826 -1.1645287 116
0.17458479 -0.14524826 -1.166441 129
0.17458479 -0.14524826 -1.1683532 129
0.17458479 -0.14142379 -1.1721777 131
0.17649701 -0.14524826 -1.1721777 127
0.17458479 -0.14524826 -1.1721777 127
0.17076032 -0.13377486 -1.1645287 150
0.17076032 -0.1356871 -1.1645287 145
0.17076032 -0.13759933 -1.1626165 144
0.17076032 -0.13759933 -1.1645287 143
0.17076032 -0.1356871 -1.166441 145
0.17076032 -0.13759933 -1.166441 143
0.17076032 -0.13759933 -1.1683532 143
0.16884808 -0.13186263 -1.1645287 152
0.16884808 -0.13186263 -1.166441 152
0.16884808 -0.13377486 -1.166441 150
0.17267255 -0.13951157 -1.1645287 142
0.17267255 -0.14142379 -1.1645287 139
0.17267255 -0.13951157 -1.166441 143
0.17267255 -0.13951157 -1.1683532 143
0.17267255 -0.14142379 -1.1683532 141
0.17267255 -0.14142379 -1.1721777 131
0.17076032 -0.13951157 -1.1702654 143
0.17076032 -0.14142379 -1.1721777 78
0.17458479 -0.14907274 -1.1568798 127
0.17649701 -0.14907274 -1.1607043 119
0.17458479 -0.1471605 -1.158792 126
0.17458479 -0.1471605 -1.1607043 119
0.17458479 -0.14907274 -1.158792 126
0.17649701 -0.15098496 -1.158792 124
0.17649701 -0.15289719 -1.158792 112
0.17649701 -0.15289719 -1.1607043 112
0.17458479 -0.16054612 -1.1530553 119
0.17649701 -0.15672167 -1.1568798 117
0.17458479 -0.15672167 -1.1568798 126
0.17649701 -0.15480943 -1.158792 117
0.17649701 -0.15480943 -1.1607043 105
0.17649701 -0.15672167 -1.158792 117
0.17649701 -0.15672167 -1.1607043 96
0.17649701 -0.16054612 -1.1568798 114
0.17458479 -0.16054612 -1.1568798 114
0.17649701 -0.16054612 -1.158792 114
0.17649701 -0.16054612 -1.1607043 107
0.17267255 -0.14907274 -1.1530553 133
0.17076032 -0.1471605 -1.1530553 139
0.17076032 -0.14907274 -1.1511431 139
0.17076032 -0.15098496 -1.1530553 139
0.17076032 -0.15289719 -1.1530553 134
0.16884808 -0.1471605 -1.1511431 140
0.16884808 -0.14907274 -1.1511431 140
0.16693585 -0.1471605 -1.1511431 143
0.16693585 -0.14907274 -1.1511431 143
0.16884808 -0.15289719 -1.1511431 136
0.16693585 -0.15289719 -1.1511431 140
0.17267255 -0.1471605 -1.1549675 137
0.17267255 -0.1471605 -1.1568798 137
0.17267255 -0.15289719 -1.1549675 130
0.17267255 -0.15289719 -1.1568798 130
0.17267255 -0.15672167 -1.1511431 126
0.17267255 -0.15672167 -1.1530553 126
0.17076032 -0.15480943 -1.1530553 134
0.17076032 -0.15672167 -1.1511431 131
0.17267255 -0.16054612 -1.1473187 126
0.17076032 -0.16054612 -1.1492308 127
0.17267255 -0.1586339 -1.1511431 126
0.17267255 -0.16054612 -1.1511431 126
0.17076032 -0.1586339 -1.1511431 130
0.16884808 -0.15480943 -1.1511431 136
0.16884808 -0.15672167 -1.1511431 131
0.16693585 -0.15480943 -1.1511431 140
0.16884808 -0.16054612 -1.1473187 127
0.17267255 -0.15480943 -1.1549675 130
0.17267255 -0.15480943 -1.1568798 130
0.17649701 -0.1471605 -1.1645287 116
0.17649701 -0.14907274 -1.1645287 116
0.17649701 -0.1471605 -1.166441 129
0.17649701 -0.1471605 -1.1683532 129
0.17649701 -0.14907274 -1.166441 121
0.17649701 -0.14907274 -1.1683532 121
0.17649701 -0.15289719 -1.1645287 90
0.17649701 -0.15289719 -1.166441 90
0.17649701 -0.15289719 -1.1683532 81
0.17649701 -0.1471605 -1.1721777 127
0.17649701 -0.14907274 -1.1721777 64
0.17649701 -0.15289719 -1.1721777 63
0.17649701 -0.15480943 -1.1645287 90
0.17649701 -0.15672167 -1.1645287 83
0.17649701 -0.15480943 -1.166441 90
0.17649701 -0.15480943 -1.1683532 81
0.17649701 -0.15672167 -1.166441 83
0.17649701 -0.15672167 -1.1683532 78
0.17649701 -0.16054612 -1.1645287 108
0.17649701 -0.16054612 -1.166441 118
0.17649701 -0.16054612 -1.1683532 118
0.17649701 -0.15480943 -1.1721777 63
0.17649701 -0.15672167 -1.1721777 62
0.17649701 -0.16054612 -1.1721777 63
0.17458479 -0.16245836 -1.1530553 119
0.17649701 -0.16245836 -1.1568798 114
0.17458479 -0.16245836 -1.1568798 114
0.17649701 -0.16245836 -1.158792 114
0.17649701 -0.16245836 -1.1607043 107
0.17649701 -0.16628283 -1.1568798 104
0.17649701 -0.16819505 -1.1568798 104
0.17458479 -0.16628283 -1.1568798 104
0.17458479 -0.16819505 -1.1568798 104
0.17649701 -0.16628283 -1.158792 104
0.17649701 -0.16628283 -1.1607043 95
0.17649701 -0.16819505 -1.158792 104
0.17649701 -0.16819505 -1.1607043 96
0.17840925 -0.17393176 -1.1607043 104
0.17649701 -0.17010729 -1.1568798 99
0.17458479 -0.17010729 -1.1568798 99
0.17649701 -0.17010729 -1.158792 99
0.17649701 -0.17010729 -1.1607043 96
0.17649701 -0.17393176 -1.1568798 105
0.17458479 -0.17393176 -1.1568798 114
0.17649701 -0.17393176 -1.158792 105
0.17649701 -0.175844 -1.158792 107
0.17649701 -0.175844 -1.1607043 107
0.17458479 -0.175844 -1.158792 112
0.17267255 -0.16245836 -1.1492308 126
0.17076032 -0.16245836 -1.1492308 127
0.17267255 -0.16245836 -1.1511431 126
0.17267255 -0.1643706 -1.1511431 123
0.17076032 -0.16628283 -1.1492308 126
0.17076032 -0.16819505 -1.1492308 126
0.17267255 -0.16628283 -1.1511431 122
0.17267255 -0.16628283 -1.1530553 116
0.17267255 -0.16819505 -1.1530553 116
0.17076032 -0.16819505 -1.1511431 122
0.16884808 -0.16245836 -1.1473187 127
0.16884808 -0.16628283 -1.1473187 128
0.16884808 -0.16819505 -1.1473187 128
0.17076032 -0.17010729 -1.1492308 121
0.17267255 -0.17010729 -1.1530553 114
0.17267255 -0.17201953 -1.1530553 114
0.17076032 -0.17010729 -1.1511431 119
0.17076032 -0.17393176 -1.1492308 118
0.17267255 -0.17393176 -1.1530553 116
0.17076032 -0.17393176 -1.1511431 118
0.17076032 -0.175844 -1.1511431 118
0.17076032 -0.175844 -1.1530553 116
0.16884808 -0.17010729 -1.1473187 121
0.16884808 -0.17010729 -1.1492308 121
0.16693585 -0.17010729 -1.1473187 124
0.16884808 -0.17393176 -1.1473187 119
0.16884808 -0.175844 -1.1492308 118
0.16693585 -0.175844 -1.1473187 119
0.16884808 -0.175844 -1.1511431 118
0.17267255 -0.17393176 -1.1549675 114
0.17267255 -0.175844 -1.1549675 115
0.17267255 -0.175844 -1.1568798 114
0.17649701 -0.16245836 -1.1645287 108
0.17649701 -0.16245836 -1.166441 118
0.17649701 -0.16628283 -1.1645287 102
0.17649701 -0.16819505 -1.1645287 107
0.17649701 -0.16628283 -1.166441 117
0.17649701 -0.16628283 -1.1683532 117
0.17649701 -0.16819505 -1.166441 117
0.17649701 -0.16819505 -1.1683532 117
0.17649701 -0.16819505 -1.1721777 105
0.17840925 -0.17201953 -1.1645287 107
0.17840925 -0.17393176 -1.1626165 100
0.17840925 -0.17393176 -1.1645287 101
0.17840925 -0.175844 -1.1645287 101
0.17840925 -0.17393176 -1.166441 103
0.17840925 -0.17393176 -1.1683532 103
0.17840925 -0.175844 -1.166441 103
0.17840925 -0.175844 -1.1683532 103
0.17649701 -0.17010729 -1.1645287 107
0.17649701 -0.17010729 -1.166441 108
0.17649701 -0.17010729 -1.1683532 108
0.17840925 -0.17393176 -1.1721777 108
0.17840925 -0.175844 -1.1721777 108
0.18032148 -0.175844 -1.1740899 108
0.18032148 -0.175844 -1.1760021 108
0.17840925 -0.17393176 -1.1740899 108
0.17649701 -0.17010729 -1.1721777 105
0.18223372 -0.18349293 -1.1645287 78
0.18414596 -0.18349293 -1.1683532 76
0.18223372 -0.18158069 -1.166441 76
0.18223372 -0.18158069 -1.1683532 75
0.18223372 -0.18349293 -1.166441 78
0.18414596 -0.18349293 -1.1721777 78
0.18223372 -0.18158069 -1.1721777 80
0.18414596 -0.18349293 -1.1740899 78
0.18414596 -0.18349293 -1.1760021 78
0.18223372 -0.18158069 -1.1740899 87
0.18414596 -0.18540516 -1.1683532 76
0.18223372 -0.18540516 -1.166441 78
0.18414596 -0.18540516 -1.1721777 71
0.18414596 -0.18731739 -1.1721777 72
0.18414596 -0.18540516 -1.1740899 75
0.18414596 -0.18540516 -1.1760021 75
0.18414596 -0.18731739 -1.1740899 72
0.18414596 -0.18922962 -1.1760021 72
0.18223372 -0.18922962 -1.1740899 85
0.17840925 -0.17775622 -1.1607043 104
0.17840925 -0.17966846 -1.1607043 101
0.18032148 -0.18349293 -1.1607043 88
0.17840925 -0.18158069 -1.1607043 96
0.17840925 -0.18349293 -1.1607043 97
0.17649701 -0.17775622 -1.158792 107
0.17458479 -0.17775622 -1.158792 112
0.17649701 -0.18158069 -1.1607043 105
0.17649701 -0.18349293 -1.1607043 105
0.17458479 -0.18158069 -1.158792 108
0.17840925 -0.18540516 -1.1607043 97
0.17840925 -0.18731739 -1.1607043 97
0.17649701 -0.18540516 -1.1607043 97
0.17649701 -0.18922962 -1.1607043 93
0.17649701 -0.19114186 -1.1607043 93
0.17076032 -0.17775622 -1.1530553 116
0.16884808 -0.17775622 -1.1492308 118
0.16884808 -0.17775622 -1.1511431 118
0.16884808 -0.17966846 -1.1511431 116
0.16884808 -0.18158069 -1.1530553 116
0.16884808 -0.18349293 -1.1530553 116
0.16693585 -0.18158069 -1.1511431 117
0.16693585 -0.18349293 -1.1511431 117
0.16693585 -0.18349293 -1.1530553 116
0.17267255 -0.17775622 -1.1568798 112
0.17076032 -0.18158069 -1.1549675 114
0.17076032 -0.18158069 -1.1568798 112
0.17076032 -0.18349293 -1.1568798 112
0.17267255 -0.18158069 -1.158792 112
0.17267255 -0.18349293 -1.158792 112
0.16693585 -0.18540516 -1.1511431 116
0.16693585 -0.18540516 -1.1530553 115
0.16693585 -0.18922962 -1.1530553 112
0.16693585 -0.19114186 -1.1530553 112
0.17076032 -0.18540516 -1.1568798 112
0.17267255 -0.18540516 -1.158792 112
0.17267255 -0.18540516 -1.1607043 108
0.17267255 -0.18922962 -1.1607043 107
0.17267255 -0.19114186 -1.1607043 108
0.17076032 -0.18922962 -1.158792 110
0.17076032 -0.19114186 -1.158792 110
0.16884808 -0.18540516 -1.1549675 114
0.16884808 -0.18540516 -1.1568798 112
0.16884808 -0.18922962 -1.1549675 110
0.16884808 -0.18922962 -1.1568798 110
0.16884808 -0.19114186 -1.1568798 110
0.17840925 -0.17775622 -1.1626165 100
0.17840925 -0.17775622 -1.1645287 97
0.18032148 -0.17775622 -1.166441 97
0.18032148 -0.17775622 -1.1683532 97
0.18032148 -0.17966846 -1.166441 85
0.18032148 -0.17966846 -1.1683532 80
0.18032148 -0.18158069 -1.1645287 76
0.18032148 -0.18349293 -1.1626165 88
0.18032148 -0.17775622 -1.1721777 95
0.18032148 -0.17966846 -1.1721777 90
0.18032148 -0.17775622 -1.1740899 98
0.18032148 -0.17775622 -1.1760021 98
0.18032148 -0.17966846 -1.1740899 92
0.18032148 -0.17966846 -1.1760021 92
0.18032148 -0.18158069 -1.1760021 87
0.18032148 -0.18540516 -1.1645287 78
0.18032148 -0.18731739 -1.166441 85
0.18032148 -0.18731739 -1.1683532 80
0.17840925 -0.18922962 -1.1626165 93
0.17840925 -0.18922962 -1.1645287 89
0.17840925 -0.19114186 -1.1645287 89
0.18032148 -0.18922962 -1.166441 88
0.18032148 -0.18922962 -1.1683532 87
0.17840925 -0.19114186 -1.166441 89
0.17840925 -0.19114186 -1.1683532 87
0.17649701 -0.19114186 -1.1645287 89
0.18032148 -0.18731739 -1.1721777 81
0.18032148 -0.18922962 -1.1721777 87
0.17840925 -0.19114186 -1.1721777 87
0.18032148 -0.18922962 -1.1740899 87
0.18032148 -0.19114186 -1.1740899 87
0.18032148 -0.19114186 -1.1760021 85
0.17649701 -0.19496633 -1.158792 102
0.17649701 -0.19496633 -1.1607043 102
0.17649701 -0.19687855 -1.1607043 102
0.17458479 -0.19687855 -1.158792 104
0.17458479 -0.19879079 -1.1607043 102
0.17458479 -0.20643972 -1.158792 97
0.17458479 -0.20643972 -1.1607043 95
0.16884808 -0.19496633 -1.1530553 110
0.16693585 -0.19496633 -1.1530553 111
0.16884808 -0.19687855 -1.1530553 110
0.16884808 -0.19879079 -1.1530553 109
0.16693585 -0.19687855 -1.1530553 111
0.17076032 -0.19496633 -1.1568798 108
0.17267255 -0.19496633 -1.158792 108
0.17076032 -0.19305409 -1.158792 110
0.17267255 -0.19687855 -1.1568798 108
0.17076032 -0.19687855 -1.1549675 109
0.17076032 -0.19687855 -1.1568798 108
0.17076032 -0.19879079 -1.1549675 109
0.17076032 -0.19879079 -1.1568798 106
0.17267255 -0.19879079 -1.158792 106
0.17076032 -0.20452748 -1.1530553 105
0.17076032 -0.20643972 -1.1530553 105
0.16884808 -0.20261526 -1.1530553 105
0.16884808 -0.20452748 -1.1530553 105
0.16884808 -0.20643972 -1.1530553 105
0.17076032 -0.20261526 -1.1549675 105
0.17076032 -0.20261526 -1.1568798 104
0.17267255 -0.20070302 -1.158792 103
0.17267255 -0.20261526 -1.158792 103
0.17267255 -0.20261526 -1.1607043 102
0.17267255 -0.20452748 -1.1568798 104
0.17267255 -0.20643972 -1.1568798 97
0.17267255 -0.20452748 -1.158792 103
0.17267255 -0.20452748 -1.1607043 102
0.17840925 -0.19496633 -1.1683532 93
0.17649701 -0.19496633 -1.1645287 94
0.17649701 -0.19496633 -1.166441 94
0.17649701 -0.19687855 -1.1645287 97
0.17458479 -0.19879079 -1.1645287 97
0.17649701 -0.19687855 -1.166441 97
0.17649701 -0.19687855 -1.1683532 95
0.17649701 -0.19879079 -1.166441 97
0.17649701 -0.19879079 -1.1683532 95
0.17458479 -0.19879079 -1.166441 97
0.17840925 -0.19496633 -1.1721777 93
0.18032148 -0.19496633 -1.1740899 89
0.18032148 -0.19496633 -1.1760021 93
0.17840925 -0.19687855 -1.1721777 93
0.17840925 -0.19687855 -1.1740899 93
0.17840925 -0.19687855 -1.1760021 93
0.17840925 -0.19879079 -1.1740899 93
0.17649701 -0.19687855 -1.1721777 93
0.17649701 -0.19879079 -1.1721777 93
0.17649701 -0.19879079 -1.1740899 93
0.17649701 -0.19879079 -1.1760021 93
0.17458479 -0.20261526 -1.1645287 100
0.17649701 -0.20070302 -1.1683532 98
0.17458479 -0.20261526 -1.166441 100
0.17458479 -0.20261526 -1.1683532 98
0.17458479 -0.20452748 -1.1645287 100
0.17458479 -0.20643972 -1.1645287 94
0.17458479 -0.20452748 -1.166441 100
0.17458479 -0.20452748 -1.1683532 98
0.17458479 -0.20643972 -1.166441 95
0.17458479 -0.20643972 -1.1683532 95
0.17649701 -0.20261526 -1.1702654 95
0.17649701 -0.20261526 -1.1721777 94
0.17649701 -0.20070302 -1.1760021 88
0.17649701 -0.20261526 -1.1740899 94
0.17649701 -0.20261526 -1.1760021 94
0.17649701 -0.20452748 -1.1702654 100
0.17649701 -0.20452748 -1.1721777 100
0.17458479 -0.20643972 -1.1721777 100
0.17649701 -0.20452748 -1.1740899 100
0.17267255 -0.20643972 -1.1721777 100
0.17267255 -0.20643972 -1.1740899 100
0.18223372 -0.17775622 -1.1798266 93
0.18414596 -0.18349293 -1.1798266 82
0.18223372 -0.18158069 -1.1798266 82
0.18223372 -0.18349293 -1.1798266 82
0.18414596 -0.18349293 -1.1817389 82
0.18223372 -0.18158069 -1.1817389 82
0.18414596 -0.18540516 -1.1798266 80
0.18414596 -0.18922962 -1.1798266 76
0.18223372 -0.19114186 -1.1798266 84
0.18414596 -0.18922962 -1.1817389 76
0.18223372 -0.19114186 -1.1817389 84
0.18414596 -0.18922962 -1.1855633 61
0.18414596 -0.18922962 -1.1874756 61
0.18223372 -0.19114186 -1.1855633 90
0.18223372 -0.19114186 -1.1874756 90
0.18032148 -0.17775622 -1.1779144 98
0.18032148 -0.17775622 -1.1798266 93
0.18032148 -0.17775622 -1.1817389 93
0.18032148 -0.17966846 -1.1817389 93
0.18032148 -0.19114186 -1.1779144 83
0.18032148 -0.19114186 -1.1874756 90
0.18032148 -0.19305409 -1.1798266 94
0.18032148 -0.19496633 -1.1798266 97
0.17840925 -0.19496633 -1.1798266 97
0.18032148 -0.19305409 -1.1817389 94
0.18032148 -0.19496633 -1.1817389 97
0.17840925 -0.19496633 -1.1817389 97
0.17840925 -0.19687855 -1.1779144 97
0.17840925 -0.19687855 -1.1798266 97
0.18032148 -0.19305409 -1.1855633 90
0.18032148 -0.19305409 -1.1874756 90
0.17458479 -0.21026419 -1.1607043 95
0.16884808 -0.20835195 -1.1530553 105
0.16693585 -0.21026419 -1.1530553 105
0.17076032 -0.21026419 -1.1568798 104
0.17267255 -0.20835195 -1.158792 100
0.17267255 -0.21026419 -1.158792 100
0.17267255 -0.21217643 -1.1607043 98
0.17076032 -0.21217643 -1.158792 104
0.17076032 -0.21408865 -1.1607043 101
0.16884808 -0.21026419 -1.1549675 105
0.16884808 -0.21217643 -1.1568798 104
0.16884808 -0.21408865 -1.1568798 104
0.16693585 -0.21408865 -1.1568798 104
0.16884808 -0.21408865 -1.158792 104
0.17076032 -0.21600088 -1.1607043 101
0.16884808 -0.21791312 -1.1568798 101
0.16693585 -0.21791312 -1.1568798 101
0.16884808 -0.21791312 -1.158792 101
0.16884808 -0.21791312 -1.1607043 101
0.16693585 -0.21982536 -1.1568798 102
0.16884808 -0.21982536 -1.158792 101
0.16884808 -0.21982536 -1.1607043 101
0.16884808 -0.22173759 -1.158792 100
0.16884808 -0.22173759 -1.1607043 100
0.16693585 -0.22173759 -1.158792 102
0.17458479 -0.21026419 -1.1645287 93
0.17649701 -0.20835195 -1.1683532 94
0.17649701 -0.21026419 -1.166441 93
0.17649701 -0.21026419 -1.1683532 91
0.17458479 -0.21217643 -1.1645287 93
0.17649701 -0.21217643 -1.166441 94
0.17649701 -0.21217643 -1.1683532 94
0.17649701 -0.21408865 -1.1683532 94
0.17458479 -0.21217643 -1.166441 94
0.17458479 -0.21408865 -1.166441 94
0.17458479 -0.21408865 -1.1683532 94
0.17840925 -0.21217643 -1.1740899 93
0.17840925 -0.21408865 -1.1740899 93
0.17840925 -0.21408865 -1.1760021 95
0.17649701 -0.20835195 -1.1721777 100
0.17649701 -0.21026419 -1.1721777 95
0.17649701 -0.20835195 -1.1740899 100
0.17649701 -0.21026419 -1.1740899 95
0.17649701 -0.21026419 -1.1760021 95
0.17649701 -0.21217643 -1.1721777 93
0.17649701 -0.21408865 -1.1721777 93
0.17649701 -0.21217643 -1.1760021 95
0.17458479 -0.21791312 -1.1683532 95
0.17458479 -0.21982536 -1.1683532 95
0.17458479 -0.22173759 -1.1683532 90
0.17840925 -0.21791312 -1.1740899 95
0.17840925 -0.21791312 -1.1760021 95
0.17840925 -0.21982536 -1.1760021 95
0.17840925 -0.22173759 -1.1760021 95
0.17649701 -0.21791312 -1.1702654 95
0.17649701 -0.21791312 -1.1721777 95
0.17649701 -0.21982536 -1.1702654 95
0.17649701 -0.21982536 -1.1721777 95
0.17649701 -0.22173759 -1.1702654 90
0.17649701 -0.22173759 -1.1721777 93
0.17649701 -0.21982536 -1.1740899 95
0.17649701 -0.22173759 -1.1740899 95
0.17267255 -0.21217643 -1.1626165 97
0.17267255 -0.21408865 -1.1645287 93
0.17267255 -0.21791312 -1.1645287 97
0.17076032 -0.21791312 -1.1626165 99
0.17267255 -0.21791312 -1.166441 95
0.17076032 -0.21982536 -1.1626165 99
0.17076032 -0.21982536 -1.1645287 97
0.17076032 -0.22173759 -1.1626165 99
0.17076032 -0.22173759 -1.1645287 96
0.17267255 -0.21982536 -1.166441 95
0.17267255 -0.22173759 -1.166441 93
0.16884808 -0.22556205 -1.158792 100
0.16884808 -0.22556205 -1.1607043 100
0.16693585 -0.22556205 -1.158792 102
0.16884808 -0.22747429 -1.1607043 100
0.16693585 -0.22747429 -1.158792 102
0.16884808 -0.23129876 -1.158792 99
0.16884808 -0.23129876 -1.1607043 99
0.16884808 -0.23321098 -1.1607043 99
0.16693585 -0.23129876 -1.158792 100
0.16693585 -0.23321098 -1.1607043 101
0.17649701 -0.22364981 -1.1721777 86
0.17458479 -0.22556205 -1.1721777 84
0.17649701 -0.22556205 -1.1740899 84
0.17649701 -0.22556205 -1.1760021 84
0.17458479 -0.22747429 -1.1740899 89
0.17458479 -0.22747429 -1.1760021 89
0.17076032 -0.22556205 -1.1626165 97
0.17076032 -0.22556205 -1.1645287 95
0.17267255 -0.22556205 -1.166441 93
0.17267255 -0.22556205 -1.1683532 86
0.17076032 -0.22747429 -1.1626165 97
0.17076032 -0.22747429 -1.1645287 95
0.17076032 -0.22938652 -1.1645287 94
0.17267255 -0.22747429 -1.166441 93
0.17267255 -0.22747429 -1.1683532 86
0.17267255 -0.22747429 -1.1702654 86
0.17267255 -0.22747429 -1.1721777 87
0.17267255 -0.22938652 -1.1740899 94
0.17267255 -0.22938652 -1.1760021 92
0.17076032 -0.23129876 -1.1645287 94
0.17076032 -0.23321098 -1.1626165 99
0.17076032 -0.23321098 -1.1645287 99
0.17076032 -0.23129876 -1.166441 94
0.17076032 -0.23129876 -1.1683532 97
0.17076032 -0.23321098 -1.166441 94
0.17076032 -0.23321098 -1.1683532 97
0.17076032 -0.23512322 -1.1626165 99
0.17076032 -0.23512322 -1.1645287 99
0.17076032 -0.23703545 -1.1645287 99
0.17076032 -0.23512322 -1.166441 93
0.17076032 -0.23512322 -1.1683532 97
0.16884808 -0.23512322 -1.1626165 99
0.17076032 -0.23129876 -1.1721777 98
0.17076032 -0.23321098 -1.1702654 98
0.17076032 -0.23321098 -1.1721777 98
0.17267255 -0.23129876 -1.1740899 98
0.17267255 -0.23129876 -1.1760021 94
0.17076032 -0.23321098 -1.1740899 98
0.17076032 -0.23321098 -1.1760021 94
0.17267255 -0.23512322 -1.1721777 98
0.17267255 -0.23512322 -1.1740899 98
0.17267255 -0.23512322 -1.1760021 94
0.17840925 -0.21408865 -1.1798266 95
0.17649701 -0.21217643 -1.1779144 95
0.17649701 -0.21217643 -1.1798266 95
0.17649701 -0.21408865 -1.1817389 94
0.17840925 -0.21791312 -1.1798266 95
0.18032148 -0.21791312 -1.1817389 95
0.17840925 -0.21600088 -1.1817389 95
0.17840925 -0.21982536 -1.1779144 95
0.17840925 -0.21982536 -1.1798266 95
0.17840925 -0.22173759 -1.1779144 95
0.17840925 -0.22173759 -1.1798266 95
0.17840925 -0.21982536 -1.1817389 95
0.17840925 -0.22173759 -1.1817389 95
0.17840925 -0.21600088 -1.1855633 90
0.17840925 -0.21791312 -1.1855633 93
0.17840925 -0.21791312 -1.1874756 93
0.18032148 -0.21982536 -1.1874756 93
0.18032148 -0.22173759 -1.1874756 93
0.17840925 -0.21982536 -1.1855633 93
0.17840925 -0.22173759 -1.1855633 93
0.18032148 -0.22173759 -1.1893878 93
0.17840925 -0.21982536 -1.1893878 93
0.17840925 -0.22173759 -1.1893878 93
0.17840925 -0.22173759 -1.1913 94
0.17458479 -0.22173759 -1.1855633 55
0.17458479 -0.22173759 -1.1874756 55
0.17649701 -0.22173759 -1.1913 91
0.17267255 -0.22173759 -1.1817389 76
0.18032148 -0.22173759 -1.1932123 94
0.18032148 -0.22173759 -1.1951245 94
0.17840925 -0.22364981 -1.1798266 92
0.17840925 -0.22364981 -1.1817389 92
0.17840925 -0.22556205 -1.1817389 90
0.17840925 -0.22556205 -1.1836511 87
0.17649701 -0.22556205 -1.1798266 90
0.17458479 -0.22747429 -1.1798266 92
0.17649701 -0.22747429 -1.1817389 87
0.18032148 -0.22556205 -1.1874756 88
0.17840925 -0.22556205 -1.1855633 88
0.18032148 -0.22556205 -1.1893878 88
0.17840925 -0.22556205 -1.1893878 89
0.17840925 -0.22556205 -1.1913 93
0.17840925 -0.22747429 -1.1874756 89
0.17458479 -0.22556205 -1.1855633 94
0.17458479 -0.22556205 -1.1874756 95
0.17649701 -0.22556205 -1.1893878 89
0.17649701 -0.22556205 -1.1913 89
0.17458479 -0.22556205 -1.1893878 95
0.17649701 -0.22747429 -1.1855633 86
0.17649701 -0.22747429 -1.1874756 89
0.17649701 -0.22938652 -1.1874756 86
0.17267255 -0.22556205 -1.1836511 94
0.17267255 -0.22747429 -1.1817389 92
0.17267255 -0.22747429 -1.1855633 94
0.17267255 -0.22747429 -1.1874756 95
0.17267255 -0.22938652 -1.1874756 95
0.17267255 -0.22747429 -1.1893878 95
0.17267255 -0.23129876 -1.1779144 90
0.17267255 -0.23129876 -1.1798266 90
0.17267255 -0.23321098 -1.1798266 97
0.17267255 -0.23321098 -1.1817389 97
0.17267255 -0.23512322 -1.1798266 97
0.17267255 -0.23512322 -1.1817389 97
0.18032148 -0.22364981 -1.1932123 94
0.18032148 -0.22364981 -1.1951245 94
0.17458479 -0.24085991 -1.1740899 94
0.17458479 -0.24277215 -1.1740899 90
0.17458479 -0.24277215 -1.1760021 90
0.17458479 -0.24659662 -1.1740899 85
0.17458479 -0.24659662 -1.1760021 85
0.17458479 -0.24850886 -1.1760021 91
0.17076032 -0.23894769 -1.1645287 99
0.17267255 -0.23894769 -1.1683532 96
0.17267255 -0.24085991 -1.1683532 99
0.17076032 -0.23894769 -1.166441 99
0.17076032 -0.24085991 -1.166441 102
0.17267255 -0.24277215 -1.1683532 99
0.17076032 -0.24277215 -1.1683532 103
0.17076032 -0.24468438 -1.1683532 103
0.16884808 -0.23894769 -1.1645287 99
0.16884808 -0.24085991 -1.166441 102
0.16884808 -0.24277215 -1.166441 103
0.16884808 -0.24468438 -1.166441 105
0.17267255 -0.23894769 -1.1721777 90
0.17267255 -0.24085991 -1.1721777 90
0.17267255 -0.23894769 -1.1740899 94
0.17267255 -0.23894769 -1.1760021 94
0.17267255 -0.24085991 -1.1760021 94
0.17267255 -0.24277215 -1.1702654 99
0.17267255 -0.24277215 -1.1721777 87
0.16884808 -0.24659662 -1.1683532 105
0.16884808 -0.24850886 -1.1683532 109
0.16693585 -0.24659662 -1.166441 106
0.16693585 -0.24850886 -1.166441 110
0.16884808 -0.25042108 -1.1683532 109
0.16693585 -0.25042108 -1.166441 110
0.17267255 -0.24659662 -1.1721777 102
0.17076032 -0.24659662 -1.1702654 104
0.17076032 -0.24850886 -1.1721777 102
0.17267255 -0.24850886 -1.1740899 102
0.17076032 -0.25042108 -1.1721777 102
0.17267255 -0.25042108 -1.1740899 102
0.17267255 -0.25042108 -1.1760021 91
0.17458479 -0.25615779 -1.1760021 98
0.17458479 -0.25998226 -1.1760021 103
0.16884808 -0.25424555 -1.166441 113
0.16884808 -0.25424555 -1.1683532 113
0.16884808 -0.25615779 -1.1683532 113
0.16693585 -0.25615779 -1.166441 115
0.16884808 -0.25998226 -1.1683532 117
0.16693585 -0.25998226 -1.166441 118
0.17267255 -0.25615779 -1.1721777 109
0.17076032 -0.25424555 -1.1721777 109
0.17076032 -0.25615779 -1.1721777 109
0.17267255 -0.25424555 -1.1740899 109
0.17267255 -0.25424555 -1.1760021 96
0.17267255 -0.25615779 -1.1740899 109
0.17076032 -0.25998226 -1.1721777 116
0.17267255 -0.25807002 -1.1740899 111
0.17267255 -0.25998226 -1.1740899 115
0.17267255 -0.25998226 -1.1760021 113
0.16884808 -0.26189449 -1.1683532 118
0.16884808 -0.2638067 -1.1683532 120
0.16693585 -0.26189449 -1.166441 120
0.16884808 -0.26571894 -1.1683532 122
0.16884808 -0.26763117 -1.1683532 126
0.16693585 -0.26763117 -1.1683532 126
0.17076032 -0.26189449 -1.1721777 116
0.17076032 -0.2638067 -1.1721777 116
0.17076032 -0.26189449 -1.1740899 116
0.17076032 -0.26189449 -1.1760021 113
0.17076032 -0.2638067 -1.1740899 116
0.17076032 -0.2638067 -1.1760021 113
0.17076032 -0.26763117 -1.1721777 123
0.17076032 -0.26763117 -1.1740899 123
0.17076032 -0.26763117 -1.1760021 118
0.16884808 -0.26189449 -1.1721777 116
0.17458479 -0.24085991 -1.1798266 94
0.17458479 -0.24085991 -1.1817389 94
0.17458479 -0.24277215 -1.1798266 89
0.17458479 -0.24277215 -1.1817389 89
0.17458479 -0.24659662 -1.1798266 86
0.17458479 -0.24850886 -1.1798266 89
0.17649701 -0.24850886 -1.1817389 89
0.17458479 -0.24659662 -1.1817389 86
0.17458479 -0.25042108 -1.1798266 89
0.17649701 -0.25042108 -1.1817389 89
0.17649701 -0.25233331 -1.1817389 94
0.17840925 -0.25042108 -1.1874756 82
0.17649701 -0.24659662 -1.1855633 82
0.17649701 -0.24659662 -1.1874756 82
0.17649701 -0.24850886 -1.1855633 82
0.17649701 -0.24850886 -1.1874756 82
0.17649701 -0.24850886 -1.1893878 82
0.17649701 -0.25042108 -1.1855633 82
0.17649701 -0.25042108 -1.1893878 81
0.17267255 -0.23894769 -1.1798266 94
0.17267255 -0.23894769 -1.1817389 94
0.17267255 -0.24085991 -1.1836511 94
0.17458479 -0.25424555 -1.1798266 94
0.17458479 -0.25615779 -1.1798266 94
0.17649701 -0.25424555 -1.1836511 92
0.17649701 -0.25615779 -1.1817389 94
0.17458479 -0.25424555 -1.1817389 94
0.17458479 -0.25615779 -1.1817389 94
0.17458479 -0.25998226 -1.1798266 103
0.17649701 -0.25998226 -1.1817389 100
0.17458479 -0.25998226 -1.1817389 100
0.17649701 -0.25424555 -1.1855633 89
0.17649701 -0.25424555 -1.1874756 89
0.17649701 -0.25615779 -1.1855633 89
0.17649701 -0.25615779 -1.1874756 89
0.17649701 -0.25424555 -1.1893878 88
0.17649701 -0.25615779 -1.1893878 88
0.17649701 -0.25998226 -1.1855633 92
0.17649701 -0.25998226 -1.1874756 92
0.17649701 -0.25998226 -1.1893878 92
0.17458479 -0.26189449 -1.1798266 104
0.17649701 -0.26189449 -1.1836511 105
0.17458479 -0.26189449 -1.1817389 104
0.17458479 -0.2638067 -1.1817389 104
0.17458479 -0.26763117 -1.1817389 104
0.17649701 -0.26189449 -1.1855633 105
0.17649701 -0.26189449 -1.1874756 105
0.17458479 -0.2638067 -1.1855633 105
0.17458479 -0.2638067 -1.1874756 105
0.17649701 -0.26189449 -1.1893878 105
0.17649701 -0.2638067 -1.1893878 105
0.17458479 -0.2638067 -1.1893878 105
0.17458479 -0.26763117 -1.1855633 103
0.17458479 -0.26763117 -1.1874756 106
0.17458479 -0.26763117 -1.1893878 106
0.17267255 -0.26189449 -1.1779144 110
0.17267255 -0.2638067 -1.1798266 104
0.17267255 -0.26571894 -1.1798266 104
0.17267255 -0.26763117 -1.1798266 112
0.17458479 -0.27719235 -1.1740899 124
0.17458479 -0.27719235 -1.1760021 122
0.17458479 -0.27910459 -1.1740899 124
0.17458479 -0.27910459 -1.1760021 122
0.17458479 -0.28292903 -1.1740899 126
0.17458479 -0.28292903 -1.1760021 122
0.16884808 -0.26954341 -1.1683532 127
0.16693585 -0.27145565 -1.1683532 129
0.16693585 -0.27528012 -1.1683532 134
0.17076032 -0.26954341 -1.1721777 127
0.17076032 -0.27145565 -1.1721777 127
0.17267255 -0.26954341 -1.1740899 127
0.17267255 -0.26954341 -1.1760021 122
0.17267255 -0.27145565 -1.1740899 127
0.17267255 -0.27145565 -1.1760021 122
0.17076032 -0.27528012 -1.1721777 129
0.17267255 -0.27528012 -1.1740899 127
0.17267255 -0.27528012 -1.1760021 122
0.16884808 -0.27145565 -1.1702654 127
0.16884808 -0.27528012 -1.1702654 131
0.17076032 -0.28101683 -1.1683532 135
0.17076032 -0.28292903 -1.1683532 135
0.16884808 -0.27719235 -1.1683532 134
0.16884808 -0.27910459 -1.1683532 134
0.16693585 -0.27719235 -1.1683532 136
0.16884808 -0.28292903 -1.1683532 135
0.17267255 -0.27910459 -1.1721777 131
0.17076032 -0.27719235 -1.1702654 134
0.17076032 -0.27719235 -1.1721777 131
0.17076032 -0.27910459 -1.1702654 134
0.17267255 -0.27719235 -1.1740899 127
0.17267255 -0.28292903 -1.1702654 133
0.17267255 -0.28292903 -1.1721777 127
0.17458479 -0.28484127 -1.1721777 127
0.17458479 -0.28484127 -1.1740899 126
0.17458479 -0.28484127 -1.1760021 122
0.17458479 -0.28866574 -1.1721777 131
0.17458479 -0.29057798 -1.1721777 131
0.17458479 -0.28866574 -1.1740899 126
0.17458479 -0.28866574 -1.1760021 118
0.17458479 -0.29057798 -1.1740899 131
0.17458479 -0.29057798 -1.1760021 120
0.17458479 -0.29249021 -1.1740899 132
0.17458479 -0.29249021 -1.1760021 120
0.17649701 -0.29822692 -1.1760021 132
0.17458479 -0.29631469 -1.1740899 133
0.17458479 -0.29631469 -1.1760021 133
0.17458479 -0.29822692 -1.1740899 134
0.17076032 -0.28484127 -1.1683532 135
0.17076032 -0.28866574 -1.1683532 136
0.16884808 -0.28484127 -1.1683532 135
0.16884808 -0.28866574 -1.166441 136
0.16884808 -0.29057798 -1.166441 138
0.16884808 -0.29057798 -1.1683532 138
0.16693585 -0.28866574 -1.166441 138
0.16693585 -0.29057798 -1.166441 139
0.17267255 -0.28484127 -1.1702654 133
0.17267255 -0.28866574 -1.1702654 135
0.17267255 -0.29057798 -1.1702654 135
0.17076032 -0.28866574 -1.1702654 135
0.17076032 -0.29057798 -1.1702654 136
0.16884808 -0.29249021 -1.1683532 138
0.16693585 -0.29249021 -1.166441 139
0.16884808 -0.29822692 -1.1683532 143
0.16693585 -0.29631469 -1.166441 142
0.16693585 -0.29631469 -1.1683532 142
0.16693585 -0.29822692 -1.166441 144
0.17267255 -0.29249021 -1.1721777 135
0.17267255 -0.29440245 -1.1721777 136
0.17076032 -0.29249021 -1.1702654 136
0.17076032 -0.29440245 -1.1721777 138
0.17267255 -0.29631469 -1.1721777 140
0.17076032 -0.29631469 -1.1721777 140
0.17076032 -0.29822692 -1.1721777 142
0.17267255 -0.29822692 -1.1740899 140
0.16884808 -0.29631469 -1.1702654 141
0.17458479 -0.26954341 -1.1798266 114
0.17458479 -0.27145565 -1.1798266 114
0.17649701 -0.26954341 -1.1836511 107
0.17649701 -0.27145565 -1.1836511 107
0.17458479 -0.26954341 -1.1817389 114
0.17458479 -0.27145565 -1.1817389 114
0.17458479 -0.27528012 -1.1798266 114
0.17649701 -0.27528012 -1.1817389 114
0.17458479 -0.27528012 -1.1817389 114
0.17649701 -0.26954341 -1.1855633 103
0.17649701 -0.27145565 -1.1855633 102
0.17649701 -0.27145565 -1.1874756 102
0.17458479 -0.26954341 -1.1874756 106
0.17649701 -0.27145565 -1.1893878 103
0.17649701 -0.27145565 -1.1913 103
0.17458479 -0.26954341 -1.1893878 106
0.17649701 -0.27528012 -1.1855633 103
0.17649701 -0.27528012 -1.1874756 103
0.17649701 -0.27528012 -1.1893878 114
0.17649701 -0.27528012 -1.1913 115
0.17649701 -0.27719235 -1.1798266 115
0.17649701 -0.27910459 -1.1779144 119
0.17649701 -0.27910459 -1.1798266 115
0.17649701 -0.27719235 -1.1817389 114
0.17649701 -0.27910459 -1.1817389 115
0.17649701 -0.28101683 -1.1798266 119
0.17458479 -0.28292903 -1.1798266 119
0.17649701 -0.28292903 -1.1817389 119
0.17840925 -0.27719235 -1.1874756 105
0.17840925 -0.27910459 -1.1855633 105
0.17840925 -0.27910459 -1.1874756 105
0.18032148 -0.27910459 -1.1893878 99
0.17840925 -0.27719235 -1.1893878 114
0.17840925 -0.28101683 -1.1874756 106
0.17840925 -0.28292903 -1.1874756 107
0.18032148 -0.28292903 -1.1893878 101
0.17649701 -0.27719235 -1.1855633 105
0.17649701 -0.27910459 -1.1855633 105
0.17649701 -0.28292903 -1.1855633 107
0.17267255 -0.26954341 -1.1779144 119
0.17649701 -0.27528012 -1.1932123 117
0.17649701 -0.27528012 -1.1951245 117
0.18032148 -0.27910459 -1.1932123 95
0.17840925 -0.27719235 -1.1932123 117
0.17840925 -0.27719235 -1.1951245 117
0.17840925 -0.27910459 -1.1951245 101
0.17840925 -0.27910459 -1.1970367 101
0.17840925 -0.28292903 -1.1932123 90
0.17840925 -0.28292903 -1.1951245 101
0.18032148 -0.28292903 -1.1970367 101
0.17840925 -0.28101683 -1.1970367 101
0.17840925 -0.28292903 -1.1970367 101
0.17649701 -0.27910459 -1.1932123 95
0.17649701 -0.27910459 -1.1951245 101
0.17458479 -0.28484127 -1.1798266 119
0.17649701 -0.28484127 -1.1817389 119
0.17649701 -0.29057798 -1.1798266 116
0.17458479 -0.28866574 -1.1798266 114
0.17649701 -0.28866574 -1.1817389 114
0.17649701 -0.29057798 -1.1817389 116
0.17840925 -0.28484127 -1.1874756 107
0.17840925 -0.28484127 -1.1893878 105
0.17840925 -0.28866574 -1.1874756 103
0.17840925 -0.29057798 -1.1874756 109
0.17649701 -0.28484127 -1.1855633 107
0.17649701 -0.28484127 -1.1893878 105
0.17649701 -0.28866574 -1.1855633 103
0.17649701 -0.29057798 -1.1855633 109
0.17649701 -0.29249021 -1.1798266 124
0.17649701 -0.29440245 -1.1798266 128
0.17649701 -0.29249021 -1.1817389 124
0.17649701 -0.29631469 -1.1798266 128
0.17649701 -0.29822692 -1.1798266 128
0.17649701 -0.29631469 -1.1817389 128
0.17649701 -0.29822692 -1.1817389 128
0.17840925 -0.29249021 -1.1874756 110
0.17840925 -0.29440245 -1.1874756 117
0.17840925 -0.29631469 -1.1874756 122
0.17840925 -0.29822692 -1.1855633 117
0.17840925 -0.29822692 -1.1874756 122
0.17840925 -0.29822692 -1.1893878 122
0.17649701 -0.29249021 -1.1855633 110
0.17649701 -0.29631469 -1.1855633 117
0.17649701 -0.29822692 -1.1855633 117
0.14781353 -0.055373311 -1.1148107 109
0.14590129 -0.055373311 -1.1148107 110
0.14398906 -0.055373311 -1.1148107 110
0.14398906 -0.059197776 -1.1148107 111
0.14398906 -0.061110009 -1.1148107 111
0.13825236 -0.055373311 -1.1071618 113
0.13634013 -0.055373311 -1.1052495 115
0.13634013 -0.057285544 -1.1071618 116
0.13634013 -0.059197776 -1.1071618 117
0.14207682 -0.055373311 -1.1109862 110
0.14207682 -0.057285544 -1.1109862 111
0.14016458 -0.055373311 -1.109074 111
0.14016458 -0.059197776 -1.1109862 113
0.14016458 -0.061110009 -1.1109862 113
0.14207682 -0.059197776 -1.1128985 113
0.14207682 -0.061110009 -1.1128985 113
0.13825236 -0.059197776 -1.109074 114
0.13634013 -0.061110009 -1.109074 117
0.14207682 -0.063022241 -1.1148107 113
0.14016458 -0.063022241 -1.1128985 113
0.14207682 -0.066846706 -1.1148107 114
0.14016458 -0.066846706 -1.1148107 114
0.14016458 -0.068758942 -1.1148107 119
0.13634013 -0.063022241 -1.1109862 117
0.13634013 -0.064934477 -1.1109862 119
0.13825236 -0.066846706 -1.1148107 118
0.13634013 -0.066846706 -1.1128985 119
0.13634013 -0.068758942 -1.1148107 120
0.14016458 -0.070671171 -1.1148107 119
0.13634013 -0.070671171 -1.1148107 120
0.13634013 -0.074495643 -1.1148107 127
0.15928692 -0.055373311 -1.1301086 120
0.15546246 -0.055373311 -1.1224597 97
0.15163799 -0.055373311 -1.1186352 105
0.15355022 -0.055373311 -1.1224597 101
0.15163799 -0.055373311 -1.1205474 101
0.15355022 -0.059197776 -1.1224597 133
0.15163799 -0.059197776 -1.1205474 108
0.15163799 -0.061110009 -1.1224597 117
0.15737468 -0.055373311 -1.1243719 97
0.15737468 -0.055373311 -1.1281964 120
0.15737468 -0.057285544 -1.1281964 170
0.15546246 -0.059197776 -1.1243719 133
0.15546246 -0.061110009 -1.1243719 133
0.15546246 -0.061110009 -1.1262841 133
0.15737468 -0.059197776 -1.1301086 170
0.15546246 -0.059197776 -1.1281964 170
0.15546246 -0.061110009 -1.1281964 170
0.15546246 -0.061110009 -1.1301086 170
0.15355022 -0.061110009 -1.1243719 133
0.15546246 -0.063022241 -1.1281964 129
0.15546246 -0.063022241 -1.1301086 129
0.15546246 -0.064934477 -1.1301086 104
0.15163799 -0.063022241 -1.1243719 117
0.15163799 -0.064934477 -1.1243719 104
0.15355022 -0.063022241 -1.1281964 129
0.15163799 -0.066846706 -1.1262841 107
0.15355022 -0.066846706 -1.1301086 103
0.15163799 -0.066846706 -1.1281964 107
0.15163799 -0.068758942 -1.1301086 108
0.16311139 -0.055373311 -1.1377575 145
0.16119915 -0.055373311 -1.1320208 120
0.15928692 -0.055373311 -1.1320208 120
0.15928692 -0.057285544 -1.1320208 170
0.16119915 -0.055373311 -1.1358453 145
0.15928692 -0.057285544 -1.1358453 161
0.15928692 -0.057285544 -1.1377575 161
0.15928692 -0.059197776 -1.1377575 161
0.16311139 -0.055373311 -1.1396698 145
0.16311139 -0.055373311 -1.141582 137
0.16311139 -0.057285544 -1.1396698 145
0.16311139 -0.055373311 -1.1434942 119
0.16311139 -0.055373311 -1.1454065 99
0.15928692 -0.055373311 -1.141582 132
0.15928692 -0.057285544 -1.1396698 161
0.15928692 -0.055373311 -1.1434942 95
0.15928692 -0.059197776 -1.1396698 161
0.15928692 -0.059197776 -1.1434942 119
0.15928692 -0.063022241 -1.1434942 120
0.15928692 -0.063022241 -1.1454065 120
0.15928692 -0.066846706 -1.1454065 143
0.15928692 -0.068758942 -1.1454065 143
0.15737468 -0.059197776 -1.1320208 170
0.15546246 -0.061110009 -1.1320208 170
0.15737468 -0.059197776 -1.1358453 161
0.15737468 -0.059197776 -1.1377575 161
0.15737468 -0.061110009 -1.1377575 161
0.15546246 -0.061110009 -1.1358453 141
0.15737468 -0.059197776 -1.1396698 161
0.15737468 -0.061110009 -1.1396698 161
0.15737468 -0.059197776 -1.1434942 119
0.15546246 -0.063022241 -1.1320208 129
0.15737468 -0.063022241 -1.1377575 101
0.15546246 -0.063022241 -1.1358453 101
0.15546246 -0.066846706 -1.1320208 92
0.15546246 -0.068758942 -1.1339331 91
0.15546246 -0.066846706 -1.1358453 122
0.15546246 -0.066846706 -1.1377575 127
0.15546246 -0.068758942 -1.1358453 122
0.15546246 -0.068758942 -1.1377575 127
0.15355022 -0.068758942 -1.1320208 106
0.15737468 -0.063022241 -1.1396698 101
0.15737468 -0.063022241 -1.1434942 120
0.15737468 -0.066846706 -1.1396698 130
0.15737468 -0.066846706 -1.141582 130
0.15737468 -0.068758942 -1.1396698 130
0.15737468 -0.068758942 -1.141582 130
0.15737468 -0.066846706 -1.1434942 130
0.15737468 -0.068758942 -1.1434942 130
0.15163799 -0.070671171 -1.1301086 108
0.15928692 -0.070671171 -1.1454065 143
0.15928692 -0.074495643 -1.1454065 171
0.15928692 -0.076407872 -1.1454065 171
0.15928692 -0.080232337 -1.1454065 163
0.15928692 -0.082144573 -1.1454065 163
0.15546246 -0.070671171 -1.1339331 91
0.15546246 -0.070671171 -1.1358453 108
0.15546246 -0.070671171 -1.1377575 115
0.15546246 -0.074495643 -1.1339331 113
0.15546246 -0.076407872 -1.1339331 113
0.15546246 -0.074495643 -1.1358453 125
0.15546246 -0.074495643 -1.1377575 129
0.15546246 -0.076407872 -1.1358453 125
0.15546246 -0.076407872 -1.1377575 129
0.15163799 -0.070671171 -1.1320208 106
0.15163799 -0.074495643 -1.1320208 111
0.15163799 -0.076407872 -1.1320208 111
0.15546246 -0.070671171 -1.1396698 115
0.15737468 -0.070671171 -1.1434942 127
0.15737468 -0.074495643 -1.141582 130
0.15737468 -0.076407872 -1.1396698 130
0.15737468 -0.076407872 -1.141582 130
0.15546246 -0.074495643 -1.1396698 130
0.15737468 -0.074495643 -1.1434942 134
0.15737468 -0.076407872 -1.1434942 134
0.15546246 -0.080232337 -1.1320208 111
0.15546246 -0.080232337 -1.1358453 120
0.15546246 -0.080232337 -1.1377575 127
0.15546246 -0.082144573 -1.1320208 120
0.15546246 -0.084056802 -1.1339331 120
0.15546246 -0.082144573 -1.1358453 120
0.15546246 -0.082144573 -1.1377575 127
0.15546246 -0.084056802 -1.1358453 120
0.15546246 -0.084056802 -1.1377575 123
0.15163799 -0.080232337 -1.1320208 115
0.15355022 -0.082144573 -1.1320208 120
0.15355022 -0.084056802 -1.1320208 120
0.15163799 -0.082144573 -1.1320208 117
0.15163799 -0.084056802 -1.1320208 118
0.15737468 -0.080232337 -1.1396698 133
0.15737468 -0.080232337 -1.141582 133
0.15737468 -0.080232337 -1.1434942 142
0.15737468 -0.082144573 -1.141582 141
0.15737468 -0.084056802 -1.141582 141
0.15546246 -0.082144573 -1.1396698 141
0.15546246 -0.084056802 -1.1396698 141
0.15737468 -0.082144573 -1.1434942 142
0.15737468 -0.084056802 -1.1434942 142
0.15737468 -0.084056802 -1.1454065 142
0.14972575 -0.055373311 -1.1167229 108
0.14972575 -0.059197776 -1.1186352 107
0.14972575 -0.061110009 -1.1186352 107
0.14781353 -0.059197776 -1.1167229 107
0.14781353 -0.061110009 -1.1167229 107
0.14972575 -0.059197776 -1.1205474 105
0.14972575 -0.061110009 -1.1205474 105
0.14781353 -0.063022241 -1.1186352 106
0.14781353 -0.064934477 -1.1186352 106
0.14972575 -0.063022241 -1.1224597 105
0.14781353 -0.066846706 -1.1224597 108
0.14398906 -0.063022241 -1.1167229 111
0.14590129 -0.066846706 -1.1186352 109
0.14398906 -0.066846706 -1.1186352 110
0.14398906 -0.068758942 -1.1186352 116
0.14590129 -0.068758942 -1.1224597 115
0.14398906 -0.068758942 -1.1205474 116
0.14972575 -0.066846706 -1.1243719 106
0.14781353 -0.068758942 -1.1243719 111
0.14972575 -0.068758942 -1.1281964 110
0.14207682 -0.066846706 -1.1167229 114
0.14207682 -0.068758942 -1.1167229 119
0.14207682 -0.068758942 -1.1186352 118
0.14016458 -0.068758942 -1.1167229 119
0.14398906 -0.070671171 -1.1224597 115
0.14398906 -0.074495643 -1.1224597 121
0.14781353 -0.070671171 -1.1243719 111
0.14781353 -0.070671171 -1.1262841 111
0.14972575 -0.070671171 -1.1281964 110
0.14781353 -0.070671171 -1.1281964 110
0.14781353 -0.074495643 -1.1262841 115
0.14781353 -0.076407872 -1.1262841 117
0.14972575 -0.074495643 -1.1281964 115
0.14972575 -0.074495643 -1.1301086 114
0.14972575 -0.076407872 -1.1301086 117
0.14781353 -0.074495643 -1.1281964 115
0.14781353 -0.076407872 -1.1281964 117
0.14590129 -0.070671171 -1.1243719 115
0.14590129 -0.074495643 -1.1243719 118
0.14398906 -0.076407872 -1.1243719 121
0.14972575 -0.080232337 -1.1301086 118
0.14781353 -0.078320108 -1.1281964 118
0.14781353 -0.080232337 -1.1281964 118
0.14781353 -0.082144573 -1.1262841 120
0.14972575 -0.082144573 -1.1301086 119
0.14972575 -0.084056802 -1.1301086 119
0.14781353 -0.082144573 -1.1281964 120
0.14781353 -0.084056802 -1.1281964 120
0.14398906 -0.078320108 -1.1243719 124
0.14398906 -0.080232337 -1.1243719 128
0.14398906 -0.080232337 -1.1262841 124
0.14398906 -0.082144573 -1.1243719 128
0.14398906 -0.082144573 -1.1262841 128
0.14398906 -0.084056802 -1.1243719 128
0.14398906 -0.084056802 -1.1262841 128
0.14590129 -0.084056802 -1.1281964 125
0.14207682 -0.070671171 -1.1186352 118
0.14016458 -0.070671171 -1.1167229 119
0.14207682 -0.074495643 -1.1186352 124
0.14016458 -0.074495643 -1.1167229 124
0.14016458 -0.076407872 -1.1186352 124
0.14207682 -0.076407872 -1.1205474 124
0.14207682 -0.076407872 -1.1224597 121
0.13634013 -0.076407872 -1.1167229 127
0.14016458 -0.080232337 -1.1186352 128
0.14207682 -0.080232337 -1.1205474 128
0.14207682 -0.080232337 -1.1224597 128
0.14016458 -0.082144573 -1.1186352 128
0.14207682 -0.082144573 -1.1224597 129
0.14016458 -0.084056802 -1.1224597 129
0.13634013 -0.080232337 -1.1167229 133
0.13634013 -0.080232337 -1.1186352 130
0.13634013 -0.082144573 -1.1186352 132
0.13634013 -0.084056802 -1.1186352 134
0.13825236 -0.084056802 -1.1224597 132
0.13634013 -0.084056802 -1.1205474 132
0.14207682 -0.084056802 -1.1243719 129
0.15928692 -0.087881275 -1.1454065 117
0.15928692 -0.089793503 -1.1454065 154
0.15546246 -0.085969038 -1.1320208 120
0.15546246 -0.087881275 -1.1320208 118
0.15546246 -0.087881275 -1.1358453 120
0.15546246 -0.087881275 -1.1377575 128
0.15546246 -0.089793503 -1.1377575 136
0.15163799 -0.087881275 -1.1320208 126
0.15355022 -0.091705739 -1.1377575 136
0.15163799 -0.089793503 -1.1358453 130
0.15163799 -0.091705739 -1.1358453 132
0.15737468 -0.087881275 -1.141582 140
0.15546246 -0.087881275 -1.1396698 140
0.15737468 -0.087881275 -1.1434942 140
0.15737468 -0.089793503 -1.141582 152
0.15546246 -0.089793503 -1.1396698 140
0.15546246 -0.091705739 -1.1396698 140
0.15737468 -0.089793503 -1.1434942 154
0.15737468 -0.091705739 -1.1434942 154
0.15737468 -0.091705739 -1.1454065 154
0.15163799 -0.093617968 -1.1377575 134
0.15546246 -0.095530204 -1.1396698 134
0.15737468 -0.095530204 -1.1434942 162
0.15737468 -0.095530204 -1.1454065 162
0.15546246 -0.095530204 -1.1434942 162
0.15737468 -0.097442441 -1.1454065 162
0.15546246 -0.097442441 -1.1434942 162
0.15546246 -0.099354669 -1.1454065 143
0.15163799 -0.095530204 -1.1396698 139
0.15163799 -0.097442441 -1.141582 143
0.15355022 -0.097442441 -1.1434942 147
0.15355022 -0.099354669 -1.1454065 143
0.15163799 -0.099354669 -1.1434942 143
0.15355022 -0.10317913 -1.1454065 152
